ply
format ascii 1.0
comment VCGLIB generated
element vertex 780
property float x
property float y
property float z
property float nx
property float ny
property float nz
element face 0
property list uchar int vertex_indices
end_header
-0.0331391 0.0774144 0.172621 0.695981 -0.62305 -0.356959 
-0.0328538 0.0769501 0.173987 0.695981 -0.62305 -0.356959 
-0.0400998 0.0696397 0.172616 0.815467 -0.466848 -0.34215 
-0.0423156 0.0647711 0.173981 0.815546 -0.467065 -0.341664 
-0.0468739 0.0556211 0.172611 0.900112 -0.288337 -0.326588 
-0.046458 0.0553723 0.173977 0.900112 -0.288337 -0.326588 
-0.0480336 0.0504549 0.173975 0.945277 -0.0948333 -0.312183 
-0.0490654 0.040179 0.173973 0.948485 0.104589 -0.299061 
-0.0483633 0.0299055 0.172608 0.909243 0.300868 -0.287672 
-0.0359841 0.00734854 0.173979 0.711384 0.647213 -0.27395 
-0.0362993 0.00711771 0.172615 0.711384 0.647213 -0.27395 
-0.0325018 0.00352338 0.173981 0.561882 0.781576 -0.270976 
-0.0282993 0.000503171 0.173984 0.561882 0.781576 -0.270976 
-0.0285407 0.000203971 0.172621 0.562128 0.781614 -0.270354 
-0.0195135 -0.00495052 0.172627 0.387764 0.881299 -0.270093 
-0.00448234 -0.00879391 0.174 -0.00330419 0.961027 -0.276434 
0.0436696 0.0158029 0.172674 -0.822371 0.470848 -0.319386 
0.0504837 0.040641 0.172681 -0.929229 -0.102448 -0.355018 
0.0499734 0.0405405 0.174046 -0.929229 -0.102448 -0.355018 
0.0493406 0.0510115 0.172681 -0.883177 -0.292225 -0.366883 
0.0429873 0.0650809 0.174043 -0.799444 -0.467243 -0.377588 
0.0369064 0.0733619 0.174039 -0.682219 -0.620562 -0.386626 
0.0372909 0.0737903 0.172673 -0.682219 -0.620562 -0.386626 
0.0407995 0.0699313 0.172675 -0.682271 -0.620828 -0.386106 
0.0334339 0.0771809 0.174036 -0.536561 -0.746812 -0.392905 
0.0203292 0.0976319 0.163972 -0.790069 -0.502992 -0.350415 
0.00933891 0.1099 0.153322 0.285234 -0.0298049 -0.957994 
0.0134829 0.109921 0.154555 0.284947 -0.0302365 -0.958066 
-0.00474053 0.0896174 0.00989428 0.212078 -0.977253 -7.92064e-06 
-0.0193341 0.0853666 0.0746252 0.410628 -0.911803 -7.41511e-06 
-0.0146917 0.0874573 0.0746252 0.410629 -0.911802 -7.53129e-06 
-0.0280826 0.0802663 0.00989398 0.591224 -0.806507 -6.29471e-06 
-0.0355795 0.0734575 0.074625 0.74599 -0.665957 -5.17549e-06 
-0.0414971 0.0652398 0.0098939 0.868149 -0.496303 -4.11298e-06 
-0.0389702 0.0696594 0.074625 0.868147 -0.496307 -3.76328e-06 
-0.0481505 0.0409901 0.0746251 0.994067 0.108767 1.19368e-06 
-0.0475968 0.0359289 0.0746252 0.994067 0.108765 1.31434e-06 
-0.045449 0.0260328 0.00989417 0.94973 0.313069 2.86776e-06 
-0.0412906 0.016799 0.00989432 0.863886 0.503688 4.38754e-06 
-0.0438551 0.0211969 0.0746253 0.863886 0.503688 4.36681e-06 
-0.0387262 0.0124001 0.0746255 0.740285 0.672293 5.86576e-06 
-0.0353032 0.00863106 0.0746256 0.740285 0.672293 5.86576e-06 
-0.0318803 0.004862 0.0746257 0.584329 0.811517 6.90736e-06 
-0.0236169 -0.00108808 0.0746259 0.402836 0.915272 7.64303e-06 
-0.0189568 -0.00313854 0.00989484 0.402836 0.915272 7.64303e-06 
-0.0142969 -0.00519008 0.0746261 0.203735 0.979026 8.22508e-06 
-0.00931224 -0.00622684 0.00989503 0.203734 0.979026 8.1157e-06 
0.00585505 -0.00722125 0.0746264 -0.212079 0.977252 7.91185e-06 
0.0291972 0.00213038 0.00989558 -0.591232 0.806501 6.38668e-06 
0.0466911 0.0264258 0.00989565 -0.952364 0.304964 2.21816e-06 
0.0451384 0.0215764 0.0746268 -0.952364 0.304963 2.31947e-06 
0.0482438 0.0312747 0.00989563 -0.994958 0.100289 3.73241e-07 
0.049265 0.0414056 0.0746267 -0.994068 -0.108762 -1.19354e-06 
0.0481575 0.0515284 0.00989546 -0.94973 -0.31307 -2.88658e-06 
0.0481575 0.0515279 0.0746266 -0.94973 -0.31307 -2.88658e-06 
0.0424051 0.0655971 0.0746264 -0.863886 -0.503688 -4.5222e-06 
0.0200714 0.0855352 0.00989471 -0.402837 -0.915272 -7.44392e-06 
0.0247314 0.0834842 0.00989481 -0.402837 -0.915272 -7.44392e-06 
0.00545836 0.0896491 0.139356 -0.204822 -0.978799 -0.000117316 
0.00035081 0.0896391 0.00989436 0.00426428 -0.999989 -0.00196515 
0.000350886 0.0896423 0.00825668 0.00426282 -0.999989 -0.00196061 
0.00544223 0.089664 0.00825677 0.00426282 -0.999989 -0.00196061 
-0.00971604 0.0885408 0.00825653 0.212078 -0.977251 -0.00190678 
-0.0239764 0.0832765 0.00989403 0.591225 -0.806505 -0.00155317 
-0.041497 0.065243 0.00825622 0.868149 -0.496302 -0.000931974 
-0.0440239 0.0608197 0.00989389 0.952364 -0.304963 -0.000557427 
-0.0476398 0.0460595 0.00825629 0.994958 -0.100292 -0.000156145 
-0.0438551 0.0211974 0.00989424 0.863885 0.503688 0.00102302 
-0.0387261 0.0124007 0.0098944 0.740283 0.672294 0.00135239 
-0.0353032 0.0086316 0.00989448 0.740283 0.672294 0.00134994 
-0.0318803 0.00486574 0.00825689 0.584327 0.811517 0.00161229 
-0.0236168 -0.00108432 0.00825708 0.402836 0.91527 0.00181718 
-0.00931217 -0.00622362 0.00825735 0.203734 0.979024 0.00193509 
0.000763718 -0.00724243 0.0098952 -0.00426281 0.999989 0.00197654 
0.00585506 -0.00722071 0.00989528 -0.212077 0.977251 0.00192755 
0.00585513 -0.00721749 0.0082576 -0.212082 0.97725 0.00191384 
0.0158062 -0.00506113 0.00989542 -0.410622 0.911804 0.00177753 
0.0204486 -0.00297049 0.00989548 -0.410622 0.911804 0.00177753 
0.0158063 -0.00505792 0.00825774 -0.410624 0.911803 0.0017706 
0.0291972 0.0021336 0.0082579 -0.591231 0.8065 0.00155828 
0.0333035 0.00514377 0.00825794 -0.745989 0.665957 0.00127151 
0.0333034 0.00514055 0.00989562 -0.745989 0.665957 0.00127151 
0.0451385 0.0215802 0.00825799 -0.952364 0.304964 0.000559569 
0.0487544 0.0363404 0.0098956 -0.994959 0.100284 0.000158164 
0.0482439 0.0312779 0.00825796 -0.994959 0.100287 0.000149573 
0.0487113 0.0464673 0.00989551 -0.994068 -0.108763 -0.00024517 
0.0492651 0.0414093 0.00825788 -0.994068 -0.108763 -0.00024517 
0.0424051 0.0655977 0.00989524 -0.863885 -0.503688 -0.00101901 
0.0247314 0.0834875 0.00825713 -0.402838 -0.915269 -0.00181717 
0.000352527 0.0892968 0.00498133 0.00416504 -0.978062 0.208271 
-0.00956655 0.0878626 0.0033435 0.207426 -0.955811 0.208326 
-0.0278743 0.0799921 0.00498095 0.578213 -0.788755 0.208651 
-0.0319507 0.0770038 0.00498091 0.578213 -0.788755 0.208651 
-0.0350541 0.0730022 0.00334322 0.729529 -0.651262 0.208916 
-0.0411913 0.0650748 0.00498087 0.848932 -0.485323 0.209226 
-0.0467826 0.0510596 0.0049809 0.931212 -0.298188 0.209593 
-0.0472895 0.0460307 0.00498094 0.972781 -0.0980492 0.209962 
-0.0477964 0.0410018 0.00498098 0.97278 -0.0980505 0.209966 
-0.046351 0.0310313 0.0033434 0.971822 0.106331 0.210368 
-0.0409863 0.016986 0.00498129 0.844421 0.492342 0.211073 
-0.0350425 0.00887788 0.00498146 0.723553 0.657106 0.211383 
-0.0232653 -0.000460204 0.00334405 0.57109 0.793139 0.211629 
-0.0188148 -0.00280675 0.00498182 0.393693 0.894506 0.211811 
-0.0140807 -0.00450259 0.00334424 0.393693 0.894506 0.211811 
-0.018673 -0.0024814 0.00334415 0.393693 0.894507 0.211809 
-0.00425637 -0.00654704 0.00334441 0.199102 0.956791 0.211918 
0.000762425 -0.00688082 0.00498217 -0.0041733 0.977274 0.211941 
0.00581678 -0.00685926 0.00498225 -0.0041733 0.977274 0.211941 
0.000760994 -0.00652562 0.00334449 -0.00416409 0.977268 0.211968 
0.0156956 -0.00471538 0.00498239 -0.20727 0.95506 0.211896 
0.0203043 -0.0026399 0.00498245 -0.401315 0.891122 0.211771 
0.0330657 0.00541219 0.00498258 -0.577845 0.788246 0.211573 
0.0395106 0.0131633 0.00334494 -0.729146 0.65092 0.211305 
0.0448147 0.0217292 0.00498263 -0.848606 0.485132 0.210987 
0.046021 0.0266534 0.00334493 -0.930998 0.298123 0.210629 
0.0463561 0.0265428 0.00498261 -0.930998 0.298123 0.210629 
0.0484044 0.0363853 0.00498256 -0.97272 0.0980468 0.210245 
0.0478118 0.051463 0.00498242 -0.97193 -0.106344 0.209863 
0.0474661 0.0513912 0.00334473 -0.97193 -0.106344 0.209863 
0.0483616 0.0464387 0.00498247 -0.971929 -0.106341 0.209869 
0.0392701 0.0695905 0.00334445 -0.844782 -0.492545 0.209148 
0.0417973 0.065256 0.00334452 -0.844782 -0.492545 0.209148 
0.0361574 0.0735381 0.00498204 -0.723963 -0.657465 0.208847 
0.0325238 0.0770191 0.00334427 -0.723963 -0.657465 0.208847 
0.0358969 0.0733048 0.00334436 -0.723963 -0.657465 0.208847 
0.0243804 0.0828827 0.00334408 -0.571478 -0.793661 0.208605 
0.0102836 0.0879473 0.00334381 -0.19927 -0.95755 0.208302 
0.0104559 0.0886033 0.139355 -0.0933607 -0.446796 0.889751 
0.0330577 0.0774928 0.152514 -0.740563 -0.671986 0.00111478 
0.0465636 0.0563627 0.139358 -0.949753 -0.31299 0.00268847 
0.0450167 0.0611699 0.152521 -0.94968 -0.31321 0.00277708 
0.0482061 0.0515006 0.152523 -0.994029 -0.109057 0.00356829 
0.0487613 0.0464403 0.152523 -0.994029 -0.109057 0.00356829 
0.0487544 0.0363393 0.139358 -0.99495 0.100284 0.00408358 
0.0488075 0.0363155 0.152524 -0.99498 0.0999901 0.00419737 
0.0467475 0.0264036 0.152524 -0.952422 0.304748 0.0045723 
0.0367571 0.00892298 0.152522 -0.745986 0.665948 0.00431796 
0.0292634 0.0021183 0.15252 -0.591132 0.806566 0.00369378 
0.0158766 -0.00506773 0.152515 -0.211805 0.977311 0.00154317 
0.00585503 -0.0072218 0.139358 -0.00426352 0.999991 6.6249e-05 
-0.0042536 -0.00726427 0.152508 0.203987 0.978973 -0.00121777 
-0.00432767 -0.0072652 0.139357 0.20373 0.979026 -0.00131801 
-0.00931227 -0.00622793 0.139357 0.20373 0.979026 -0.00131801 
-0.0142969 -0.00519062 0.139357 0.402836 0.915269 -0.0026052 
-0.0276738 0.00189245 0.152499 0.584325 0.811512 -0.0036996 
-0.0437837 0.0212032 0.152492 0.949638 0.313307 -0.00523012 
-0.0481505 0.0409895 0.139356 0.994946 -0.100285 -0.00498486 
-0.0455766 0.0559698 0.139356 0.952421 -0.304753 -0.00443921 
-0.0414386 0.0652355 0.152489 0.868156 -0.496275 -0.0039511 
-0.0355219 0.0734487 0.15249 0.745802 -0.666159 -0.0034879 
-0.0389125 0.0696534 0.15249 0.745742 -0.666226 -0.00345289 
-0.0321849 0.0772524 0.139355 0.590828 -0.806792 -0.00309837 
-0.0132842 0.099152 0.14598 0.108446 -0.499594 0.859445 
-0.00887291 0.100068 0.145146 0.255086 -0.448436 0.856642 
-0.00473232 0.0896109 0.139354 0.00136205 -0.399616 0.916682 
-0.0104308 0.0918856 0.139494 -0.0795746 0.366504 -0.927007 
-0.00510606 0.0930441 0.139495 -0.23148 0.297756 -0.926152 
-0.0143035 0.101972 0.144664 -0.803591 0.331323 -0.494435 
-0.0207313 0.0884912 0.139495 -0.362974 0.806595 -0.466535 
-0.0256529 0.0862386 0.152561 -0.590485 0.807042 0.0033215 
-0.0300523 0.0830197 0.152561 -0.590731 0.806863 0.00319527 
-0.0257052 0.0862541 0.139495 -0.590731 0.806863 0.00319527 
-0.0345051 0.0798108 0.139497 -0.745713 0.666257 0.00360225 
-0.0381379 0.0757447 0.139497 -0.745713 0.666257 0.00360225 
-0.0417137 0.0716724 0.152559 -0.868116 0.496346 0.00400303 
-0.0444187 0.0669414 0.152559 -0.868116 0.496346 0.00400303 
-0.0471231 0.0622101 0.152558 -0.952418 0.304763 0.00440122 
-0.0487842 0.0570192 0.152558 -0.952418 0.304763 0.00440122 
-0.0509901 0.046405 0.152558 -0.994946 0.10029 0.00492864 
-0.0486379 0.0249663 0.15256 -0.949639 -0.313303 0.00519941 
-0.047002 0.0197824 0.139498 -0.863787 -0.503831 0.00502732 
-0.0415097 0.0103623 0.139498 -0.740237 -0.672331 0.00455668 
-0.0377693 0.00633267 0.152566 -0.740237 -0.672331 0.00455668 
-0.0296784 -0.000890251 0.152569 -0.584383 -0.81147 0.00376906 
-0.0341788 0.00229004 0.139498 -0.584325 -0.811511 0.00373918 
-0.0152733 -0.00847154 0.152575 -0.203989 -0.978972 0.00139539 
0.011631 -0.0094981 0.152585 0.211809 -0.97731 -0.00142708 
0.0168868 -0.00833683 0.139499 0.410626 -0.911799 -0.00279782 
0.0312933 -0.000648383 0.152591 0.591131 -0.806567 -0.00374641 
0.0392547 0.00665502 0.139499 0.745983 -0.66595 -0.0044529 
0.0429472 0.0107038 0.152595 0.868201 -0.49619 -0.00478476 
0.0500164 0.0253577 0.152596 0.952354 -0.304959 -0.00463902 
0.0521696 0.0359984 0.139499 0.99495 -0.100287 -0.00420853 
0.0527164 0.041423 0.139499 0.994062 0.108761 -0.00351576 
0.0481171 0.0626185 0.139499 0.863945 0.503583 -0.00176336 
0.0426731 0.0720043 0.15259 0.740474 0.672085 -0.000893809 
0.0309414 0.0832473 0.152583 0.584477 0.811411 -1.83436e-05 
0.0353086 0.0801012 0.139498 0.584395 0.811469 -5.98369e-05 
0.0308921 0.0832818 0.139497 0.584395 0.811469 -5.98369e-05 
0.0214922 0.0886542 0.139496 0.352692 0.801719 -0.48255 
0.016267 0.101889 0.144557 0.0868738 0.416707 -0.90488 
0.000338641 0.0930722 0.139497 -0.0012492 0.300371 -0.953821 
0.00542862 0.110987 0.149955 -0.412795 -0.537482 0.735332 
0.0293023 0.0807461 0.167084 -0.558132 -0.774582 0.297508 
0.024862 0.0834014 0.165665 -0.558358 -0.774621 0.296981 
0.0334754 0.0777407 0.167088 -0.704197 -0.638879 0.309742 
0.0365195 0.0736994 0.165676 -0.704176 -0.63863 0.310304 
0.0403936 0.0701198 0.167095 -0.816744 -0.476095 0.32598 
0.0399369 0.0699341 0.165679 -0.816662 -0.475848 0.326546 
0.0472003 0.0563272 0.167101 -0.891301 -0.294062 0.345123 
0.0488167 0.0514338 0.167103 -0.925498 -0.101797 0.364816 
0.0488114 0.0464144 0.165689 -0.925498 -0.101797 0.364816 
0.0488607 0.0362917 0.16569 -0.918482 0.0920529 0.3846 
0.0468039 0.0263824 0.16569 -0.871514 0.278688 0.403482 
0.0427311 0.0171197 0.165689 -0.787557 0.449843 0.421183 
0.0432238 0.01666 0.167102 -0.787639 0.45003 0.42083 
0.0334329 0.0051138 0.165684 -0.528253 0.720585 0.449117 
0.0252264 -0.000899196 0.165679 -0.364591 0.809866 0.459554 
0.000910294 -0.00724464 0.165662 -0.00356578 0.881343 0.472463 
-0.0279918 0.00125348 0.167053 0.515421 0.716382 0.470253 
-0.0234667 -0.00107782 0.165644 0.515413 0.716125 0.470653 
-0.0351554 0.00864433 0.165635 0.65551 0.595802 0.464033 
-0.0417094 0.0163493 0.167041 0.769338 0.449167 0.454277 
-0.0459246 0.0256946 0.167037 0.851993 0.281498 0.441437 
-0.0443081 0.0208012 0.167039 0.852088 0.281629 0.441169 
-0.0474615 0.0359383 0.165622 0.899438 0.0990356 0.425681 
-0.0486684 0.0408306 0.167034 0.908644 -0.091057 0.407522 
-0.0470035 0.0511244 0.165621 0.878168 -0.280815 0.387252 
-0.0445032 0.0608912 0.167035 0.807818 -0.461929 0.366131 
-0.0393913 0.0698315 0.167037 0.699692 -0.625547 0.345141 
-0.0354667 0.073442 0.165625 0.699648 -0.62526 0.345751 
-0.0279698 0.080239 0.165628 0.558042 -0.763019 0.326177 
-0.0325264 0.0775103 0.16704 0.558042 -0.763019 0.326177 
-0.0181433 0.0975638 0.160451 0.920426 -0.263186 0.289047 
-0.0242091 0.0835916 0.167044 0.920426 -0.263186 0.289047 
-0.00986626 0.108238 0.152478 0.481286 -0.507102 0.714991 
-0.00325361 0.110979 0.149969 0.00317764 -0.599203 0.800591 
-0.00360408 0.11654 0.148652 -0.470128 0.485489 -0.737075 
-0.0108214 0.113569 0.151296 -0.831612 0.25606 -0.492803 
-0.0192216 0.0997173 0.15773 -0.857544 0.38026 -0.34644 
-0.0259695 0.0866088 0.167042 -0.552725 0.756368 -0.349861 
-0.0385531 0.0759858 0.167037 -0.692672 0.619261 -0.369758 
-0.0343978 0.0797902 0.165624 -0.692672 0.619261 -0.369758 
-0.0487227 0.0570186 0.165619 -0.868414 0.277704 -0.410777 
-0.0503818 0.0518293 0.165618 -0.898241 0.0899902 -0.430192 
-0.0521623 0.0408178 0.167031 -0.888638 -0.0978718 -0.448045 
-0.0508724 0.0355672 0.16562 -0.888678 -0.097905 -0.447958 
-0.0502763 0.0301492 0.165621 -0.841435 -0.278009 -0.463355 
-0.0419273 0.00983452 0.167042 -0.647089 -0.588176 -0.485102 
-0.0382143 0.00574851 0.167045 -0.64717 -0.588453 -0.484658 
-0.0204867 -0.00701518 0.167059 -0.350076 -0.795738 -0.494215 
-0.00462562 -0.0114948 0.167071 0.00353578 -0.870335 -0.492447 
0.0064126 -0.0114545 0.167079 0.184937 -0.853267 -0.487579 
0.0117033 -0.00950309 0.16567 0.185025 -0.853361 -0.487381 
0.0171984 -0.00912103 0.167086 0.360002 -0.799918 -0.480135 
0.0219977 -0.00611548 0.165677 0.360002 -0.799918 -0.480135 
0.0313601 -0.000661056 0.165683 0.52171 -0.711874 -0.470164 
0.0269662 -0.00388057 0.16568 0.521966 -0.71198 -0.469719 
0.0393815 0.00662192 0.165688 0.663362 -0.591948 -0.457765 
0.036159 0.00192093 0.167099 0.663429 -0.592199 -0.457342 
0.0457112 0.0154151 0.165691 0.778432 -0.444642 -0.443099 
0.0506576 0.0249747 0.167107 0.861574 -0.275419 -0.426422 
0.0484135 0.0201448 0.165692 0.861655 -0.275525 -0.426189 
0.0528877 0.0357157 0.167107 0.908358 -0.0910604 -0.408159 
0.0499169 0.0573804 0.165688 0.882285 0.291175 -0.369852 
0.0487692 0.0626524 0.167102 0.808518 0.47138 -0.352278 
0.0395033 0.0762648 0.167093 0.697533 0.633043 -0.335715 
0.0358008 0.0803442 0.16709 0.553163 0.767611 -0.323703 
0.00103826 0.11656 0.148645 -0.0012629 0.570977 -0.820965 
0.0057211 0.116552 0.148632 -0.0012629 0.570977 -0.820965 
0.00950629 0.112763 0.153283 -0.379905 -0.32546 0.86588 
0.00953845 0.11239 0.153157 -0.380155 -0.327684 0.864931 
0.020528 0.0983019 0.163283 -0.952955 -0.285124 0.10286 
0.0341361 0.0781139 0.171304 -0.581794 -0.808577 0.0878595 
0.0339912 0.0780661 0.169904 -0.581794 -0.808577 0.0878595 
0.029865 0.0811867 0.1713 -0.581962 -0.808523 0.0872426 
0.0376753 0.0742187 0.171307 -0.736355 -0.669202 0.09975 
0.0412174 0.0703216 0.17131 -0.736425 -0.669024 0.100428 
0.0463187 0.0612598 0.169914 -0.857779 -0.500767 0.115967 
0.0465313 0.0612213 0.171314 -0.857638 -0.500872 0.116552 
0.0481853 0.0562181 0.171315 -0.940808 -0.310967 0.134835 
0.0498399 0.0512145 0.171316 -0.940725 -0.311051 0.135216 
0.0507569 0.0408845 0.169918 -0.981948 -0.108146 0.155183 
0.0504682 0.0355009 0.171316 -0.979489 0.0982207 0.175937 
0.0483365 0.0252447 0.171314 -0.933919 0.298872 0.196141 
0.046517 0.020477 0.169915 -0.933954 0.298984 0.195804 
0.0343309 0.00356647 0.169907 -0.725345 0.648074 0.232108 
0.0344776 0.00323174 0.171303 -0.725337 0.648288 0.231537 
0.0301012 0.000470687 0.169904 -0.57232 0.781975 0.246909 
0.00604363 -0.00953961 0.171282 -0.203719 0.941495 0.268487 
-0.014839 -0.00742561 0.171267 0.195667 0.940134 0.27904 
-0.024499 -0.00317578 0.17126 0.386482 0.878936 0.27947 
-0.01952 -0.00492227 0.169867 0.386543 0.878778 0.279883 
-0.0330653 0.00298532 0.171254 0.561038 0.780071 0.276996 
-0.0401637 0.0107885 0.171249 0.71218 0.647814 0.270438 
-0.0484853 0.0300987 0.169845 0.920251 0.304286 0.246065 
-0.049633 0.0405183 0.169844 0.967661 0.106605 0.228621 
-0.0456838 0.0608853 0.171246 0.935766 -0.299574 0.186003 
-0.0469901 0.0559359 0.169846 0.935664 -0.299655 0.186386 
-0.0332005 0.0778322 0.169854 0.737757 -0.660242 0.140696 
-0.0366952 0.0739268 0.169853 0.737757 -0.660242 0.140696 
-0.0291677 0.0809879 0.171256 0.5855 -0.80189 0.11901 
-0.0247329 0.0840185 0.169859 0.585598 -0.801715 0.119702 
-0.0187581 0.0983736 0.163357 0.710257 0.0185203 0.703699 
-0.0185862 0.0982271 0.16257 0.876882 -0.400238 0.266247 
-0.00690361 0.112395 0.153208 0.408405 -0.163941 0.897958 
-0.00349728 0.113807 0.151916 0.408742 -0.16476 0.897655 
0.00539653 0.114193 0.152021 0.00128857 -0.29662 0.954995 
0.000957034 0.113823 0.151912 0.00128857 -0.29662 0.954995 
-0.0267125 0.0871819 0.171257 -0.92457 0.351394 -0.147286 
-0.0358307 0.0805237 0.171252 -0.584524 0.800456 -0.132668 
-0.0310598 0.0837761 0.169855 -0.58461 0.800275 -0.133384 
-0.0433552 0.0721156 0.171248 -0.736356 0.658893 -0.153755 
-0.0461569 0.0672209 0.171246 -0.854189 0.488892 -0.177046 
-0.0486493 0.0623588 0.169845 -0.854189 0.488892 -0.177046 
-0.0529606 0.045972 0.17124 -0.970271 0.0973818 -0.221567 
-0.0484362 0.0186857 0.169846 -0.917237 -0.30328 -0.258261 
-0.0456031 0.0138359 0.169848 -0.83089 -0.485496 -0.271873 
-0.0427701 0.00898616 0.16985 -0.830945 -0.485689 -0.271363 
-0.026272 -0.00627462 0.171259 -0.559074 -0.777618 -0.287656 
-0.0308587 -0.0029758 0.171255 -0.559074 -0.777618 -0.287656 
-0.0157989 -0.010419 0.16987 -0.385139 -0.875913 -0.290593 
-0.00486411 -0.0131307 0.171274 -0.194988 -0.936858 -0.290303 
0.0497734 0.0190439 0.169918 0.845158 -0.48331 -0.228298 
0.0531938 0.029731 0.16992 0.931291 -0.298014 -0.209486 
0.0534441 0.0295306 0.171318 0.931291 -0.298014 -0.209486 
0.0537538 0.0353142 0.16992 0.97703 -0.0979888 -0.18924 
0.0545703 0.0407545 0.171319 0.977047 -0.0980187 -0.189134 
0.0513224 0.0573863 0.169918 0.938977 0.31042 -0.148195 
0.0467292 0.0675655 0.169914 0.856346 0.499956 -0.129287 
0.0319436 0.084066 0.171301 0.581138 0.807597 -0.100324 
0.0144569 0.115222 0.153098 0.907565 0.407215 -0.102475 
0.0218403 0.100913 0.161627 0.907565 0.407215 -0.102475 
0.00576515 0.118672 0.151472 0.401807 0.840208 -0.364145 
-0.00378028 0.11866 0.151493 -0.00453811 0.91773 -0.397178 
-0.00372924 0.118238 0.150516 -0.00453811 0.91773 -0.397178 
0.000996386 0.118258 0.15051 -0.00449625 0.917657 -0.397347 
0.0337907 0.0713983 6.8988e-05 -1.60241e-05 8.71127e-06 1 
0.0393393 0.0638293 6.91426e-05 -1.59928e-05 8.66855e-06 1 
0.0417159 0.0597532 6.92157e-05 -1.5968e-05 8.62594e-06 1 
0.0395306 0.0189378 6.95381e-05 -1.60987e-05 8.63485e-06 1 
0.0340467 0.0113217 6.95144e-05 -1.60544e-05 8.64332e-06 1 
0.0371889 0.0148416 6.95344e-05 -1.62456e-05 8.37788e-06 1 
0.0189915 0.000285152 6.9374e-05 -1.58959e-05 8.85917e-06 1 
0.0232937 0.00222265 6.94252e-05 -1.58959e-05 8.85917e-06 1 
0.0146893 -0.00165231 6.93202e-05 -1.60851e-05 8.73708e-06 1 
-0.00396929 -0.00369392 6.90378e-05 -1.58289e-05 8.70822e-06 1 
0.00074901 -0.00367378 6.91141e-05 -1.62229e-05 8.74794e-06 1 
-0.0175266 0.000129409 6.87875e-05 -1.63378e-05 7.95784e-06 1 
-0.00858866 -0.00273261 6.89563e-05 -1.63378e-05 7.95784e-06 1 
-0.0218452 0.00203014 6.87018e-05 -1.34614e-05 1.44934e-05 1 
-0.0256742 0.00478718 6.86103e-05 -1.60654e-05 8.60247e-06 1 
-0.0382239 0.0186061 6.82902e-05 -1.75516e-05 7.93105e-06 1 
-0.044068 0.0363349 6.80431e-05 -1.33619e-05 9.26035e-06 1 
-0.0435548 0.0316445 6.80934e-05 -1.33619e-05 9.26035e-06 1 
-0.0420777 0.0271634 6.81547e-05 -1.60792e-05 8.67066e-06 1 
-0.044108 0.0457197 6.7956e-05 -1.27858e-05 9.2241e-06 1 
-0.040757 0.0594014 6.78934e-05 -1.41111e-05 7.78282e-06 1 
-0.0360735 0.0675939 6.78976e-05 -1.54188e-05 8.07579e-06 1 
-0.0329313 0.0711137 6.79176e-05 -1.62104e-05 8.62442e-06 1 
-0.0221784 0.0802127 6.80115e-05 -1.34342e-05 5.55599e-06 1 
-0.00896295 0.0850884 6.81777e-05 -1.62286e-05 1.00968e-05 1 
0.000366362 0.0861092 6.83188e-05 -1.56805e-05 8.83325e-06 1 
0.000557682 0.0412177 6.87183e-05 -1.63928e-05 8.90504e-06 1 
0.0143234 0.0842067 6.85584e-05 -1.5813e-05 8.78438e-06 1 
-0.0307509 0.0756893 0.00170559 0.446661 -0.609315 0.655156 
-0.0276662 0.0797115 0.00334328 0.446668 -0.609318 0.655149 
-0.0236196 0.0826779 0.00334331 0.446672 -0.609315 0.655149 
-0.022899 0.0814453 0.00170566 0.310257 -0.688942 0.655057 
-0.0184604 0.0834442 0.00170571 0.310257 -0.688942 0.655057 
-0.0384153 0.0634976 6.78946e-05 0.655681 -0.374845 0.655419 
-0.0317128 0.0767451 0.00334324 0.563508 -0.503058 0.65528 
-0.0421959 0.0549079 6.79081e-05 0.719147 -0.230278 0.655591 
-0.0396505 0.0642005 0.00170555 0.655677 -0.374838 0.655427 
-0.0408857 0.0649034 0.0033432 0.655677 -0.374838 0.655427 
-0.0420664 0.0599745 0.00170554 0.655678 -0.374841 0.655424 
-0.0383955 0.0692592 0.0033432 0.655678 -0.374842 0.655423 
-0.0464361 0.0509907 0.00334323 0.719151 -0.230283 0.655585 
-0.0449059 0.0557691 0.00334321 0.719151 -0.230281 0.655585 
-0.0435509 0.0553385 0.00170556 0.719151 -0.230281 0.655585 
-0.0460118 0.0410159 0.00170565 0.750335 0.0821024 0.655939 
-0.0469393 0.0459986 0.00334327 0.751157 -0.075707 0.655768 
-0.0455236 0.0458592 0.00170561 0.751157 -0.0757087 0.655768 
-0.0449529 0.0313379 0.00170575 0.750335 0.0821022 0.655939 
-0.0468967 0.0360189 0.00334336 0.750335 0.0821022 0.655939 
-0.0406005 0.0226822 6.82161e-05 0.651819 0.380054 0.656271 
-0.0432094 0.0215009 0.00334354 0.716726 0.236272 0.65611 
-0.0434289 0.0267147 0.00170581 0.716724 0.236272 0.656111 
-0.0447802 0.0262661 0.00334347 0.716723 0.23627 0.656114 
-0.0370012 0.013681 0.00170603 0.558468 0.507189 0.656409 
-0.0358474 0.01453 6.83635e-05 0.558463 0.507189 0.656413 
-0.0337286 0.0100774 0.00170611 0.558463 0.507189 0.656413 
-0.041905 0.0220916 0.00170588 0.651818 0.380054 0.656272 
-0.0406822 0.0171665 0.00334362 0.651818 0.380054 0.656272 
-0.0295032 0.00754424 6.85242e-05 0.440755 0.612141 0.656519 
-0.0304559 0.00647382 0.0017062 0.558469 0.507193 0.656405 
-0.038155 0.012832 0.00334369 0.558466 0.507188 0.656411 
-0.0225552 0.000784956 0.00170638 0.440754 0.612137 0.656525 
-0.027337 0.0024716 0.00334396 0.440757 0.61214 0.656519 
-0.0265056 0.00362941 0.00170629 0.440748 0.612137 0.656528 
-0.00411283 -0.00512047 0.00170672 0.153644 0.738375 0.656655 
0.0100783 -0.00265299 6.92548e-05 -0.15996 0.737044 0.656643 
0.00577837 -0.00650426 0.00334457 -0.00322163 0.754171 0.65667 
0.00562284 -0.00507896 0.00170688 -0.00322807 0.75418 0.65666 
0.000755007 -0.00509972 0.0017068 -0.00323041 0.75418 0.65666 
0.0151371 -0.0030142 0.00170702 -0.309726 0.687728 0.656582 
0.0106816 -0.00544016 0.00334464 -0.15996 0.73704 0.656646 
0.0240142 0.000983581 0.00170712 -0.445987 0.60837 0.656492 
0.0155849 -0.00437605 0.00334471 -0.309724 0.687732 0.656579 
0.0201598 -0.00231577 0.00334477 -0.309724 0.687732 0.656579 
0.0309045 0.00780188 6.94946e-05 -0.562809 0.502422 0.656368 
0.0318662 0.00673964 0.0017072 -0.445988 0.608372 0.656489 
0.0328278 0.00567739 0.0033449 -0.445988 0.608372 0.656489 
0.0287813 0.00271096 0.00334486 -0.44599 0.608371 0.656489 
0.0407657 0.0182285 0.00170724 -0.655078 0.374496 0.65622 
0.035108 0.010371 0.00170722 -0.562806 0.502424 0.656368 
0.0383498 0.0140024 0.00170724 -0.562806 0.502424 0.656368 
0.0446662 0.0270905 0.00170723 -0.718755 0.23016 0.656062 
0.0418724 0.023034 6.95405e-05 -0.718755 0.230159 0.656062 
0.0447502 0.0320211 6.9509e-05 -0.751058 0.075711 0.655881 
0.0431817 0.0224545 0.00170724 -0.718758 0.23016 0.656059 
0.0444909 0.021875 0.00334495 -0.718757 0.23016 0.65606 
0.0456966 0.0414102 6.94438e-05 -0.750534 -0.0821137 0.65571 
0.0480543 0.0364239 0.00334488 -0.751055 0.0757067 0.655885 
0.0460681 0.0510911 0.00170704 -0.717201 -0.236409 0.65554 
0.0446702 0.0507909 6.93388e-05 -0.717201 -0.236409 0.655541 
0.0465976 0.0462521 0.00170709 -0.750537 -0.0821115 0.655707 
0.0485575 0.041416 0.00334484 -0.750537 -0.0821115 0.655707 
0.0443245 0.0609215 0.0033446 -0.717206 -0.236408 0.655535 
0.0458953 0.0561564 0.00334467 -0.717208 -0.236413 0.655532 
0.0348438 0.0723515 0.00170667 -0.559241 -0.507861 0.655231 
0.0369628 0.0679054 6.90692e-05 -0.559241 -0.507861 0.655231 
0.0381164 0.0687479 0.00170676 -0.559233 -0.50786 0.655238 
0.0430202 0.0603374 0.00170691 -0.6525 -0.380429 0.655376 
0.0267895 0.0776482 6.88215e-05 -0.441484 -0.613111 0.655124 
0.0315712 0.0759551 0.00170659 -0.441483 -0.613111 0.655125 
0.018642 0.082306 6.86445e-05 -0.30439 -0.691569 0.655041 
0.0276208 0.0787995 0.0017065 -0.441485 -0.613113 0.655121 
0.0284521 0.0799509 0.00334418 -0.441485 -0.613113 0.655121 
0.019215 0.0836049 0.00170632 -0.304393 -0.691575 0.655034 
0.0151958 0.086925 0.0033439 -0.153965 -0.739791 0.654984 
0.00999383 0.0865577 0.00170615 -0.153965 -0.739791 0.654984 
0.0147596 0.0855659 0.00170623 -0.153965 -0.739791 0.654984 
-0.00926475 0.0864755 0.00170584 0.160249 -0.738447 0.654993 
-0.0045076 0.0875079 0.0017059 0.160244 -0.738443 0.654999 
-0.00435194 0.0860891 6.82424e-05 0.160244 -0.738443 0.654999 
0.000354092 0.0889481 0.00334365 0.00321073 -0.755644 0.654974 
0.00537145 0.0889695 0.00334373 0.0032093 -0.755642 0.654977 
0.000360231 0.0875286 0.00170598 0.0032093 -0.755642 0.654977 
0.00522806 0.0875494 0.00170606 0.0032093 -0.755642 0.654977 
-0.0144698 0.0867985 0.00334343 0.160246 -0.73844 0.655002 
-0.00466327 0.0889267 0.00334357 0.160247 -0.73844 0.655002 
-0.0414251 0.0273622 -0.00303153 2.13522e-05 -6.83884e-06 -1 
-0.0321667 0.0114828 -0.00303124 1.61526e-05 -8.50226e-06 -1 
-0.0215024 0.00261369 -0.00303099 1.58358e-05 -9.05306e-06 -1 
0.00055736 0.0412014 -0.00303097 1.61513e-05 -8.5013e-06 -1 
-0.0129976 -0.00112955 -0.00303083 1.60607e-05 -8.66647e-06 -1 
-0.00390029 -0.00302271 -0.00303066 1.6099e-05 -8.48275e-06 -1 
0.0266924 0.00555019 -0.00303024 1.59959e-05 -8.51276e-06 -1 
0.0366276 0.015229 -0.00303017 1.59682e-05 -8.54501e-06 -1 
0.0389335 0.0192625 -0.00303017 1.59649e-05 -8.54952e-06 -1 
0.0412394 0.023296 -0.00303016 1.59649e-05 -8.54952e-06 -1 
0.0440731 0.0321456 -0.00303019 1.6323e-05 -7.4369e-06 -1 
0.0445391 0.0367683 -0.00303022 1.63368e-05 -8.59738e-06 -1 
0.0364049 0.0674805 -0.00303062 1.60789e-05 -8.60807e-06 -1 
0.0387451 0.0634668 -0.00303054 1.60789e-05 -8.60807e-06 -1 
0.00501502 0.0854255 -0.00303127 1.60979e-05 -8.48791e-06 -1 
0.000368976 0.0854056 -0.00303134 1.60731e-05 -8.61067e-06 -1 
-0.00881747 0.0844005 -0.00303148 1.60594e-05 -8.48542e-06 -1 
-0.0175942 0.0815073 -0.0030316 1.60971e-05 -8.6508e-06 -1 
-0.0255776 0.0768526 -0.00303169 1.64893e-05 -8.15102e-06 -1 
-0.0378188 0.0631403 -0.00303177 1.59885e-05 -8.56305e-06 -1 
-0.0324188 0.0706397 -0.00303175 1.60695e-05 -8.62137e-06 -1 
-0.0429584 0.0502572 -0.00303174 1.60796e-05 -8.62181e-06 -1 
-0.0232733 0.0806689 -0.00206865 -0.294518 0.38877 -0.872993 
-0.0225519 0.0801342 -0.00255015 -0.294518 0.38877 -0.872993 
-0.0341115 0.0712077 -0.00194864 -0.417413 0.352899 -0.837394 
-0.0301413 0.0744787 -0.00250834 -0.392274 0.340341 -0.85457 
-0.0293247 0.0741057 -0.00303173 -0.332999 0.440703 -0.833602 
-0.0263466 0.0773064 -0.00252924 -0.308698 0.421115 -0.852858 
-0.037265 0.0675638 -0.00191234 -0.439468 0.372182 -0.817526 
-0.0355129 0.0671738 -0.00303177 -0.436646 0.379529 -0.815658 
-0.0332651 0.0709237 -0.0024902 -0.436646 0.379529 -0.815658 
-0.0410219 0.0591152 -0.00244289 -0.524294 0.283565 -0.802936 
-0.0433181 0.054512 -0.00183325 -0.562339 0.16693 -0.809882 
-0.0419192 0.0591237 -0.001854 -0.539945 0.166349 -0.825098 
-0.0451265 0.0450985 -0.00180106 -0.59527 0.0488585 -0.802039 
-0.0442754 0.0453665 -0.00241638 -0.576175 0.0525293 -0.815637 
-0.0424298 0.054597 -0.0024325 -0.561909 0.179928 -0.807394 
-0.0447132 0.0406543 -0.00241065 -0.598884 -0.0704155 -0.797734 
-0.0438903 0.0410118 -0.00303168 -0.616943 0.0563571 -0.784988 
-0.0434244 0.0456345 -0.00303171 -0.597237 0.0601931 -0.799803 
-0.0443405 0.0307327 -0.00178639 -0.597093 -0.0749021 -0.798667 
-0.0441616 0.035954 -0.00240982 -0.59888 -0.0704141 -0.797737 
-0.0436101 0.0312537 -0.00240899 -0.6188 -0.0677109 -0.782625 
-0.0428797 0.0317747 -0.00303159 -0.6188 -0.0677109 -0.782625 
-0.0420934 0.0267709 -0.0024131 -0.567435 -0.195308 -0.79992 
-0.0411828 0.0216263 -0.00180294 -0.567435 -0.195308 -0.79992 
-0.0386918 0.0175008 -0.00182074 -0.499273 -0.297955 -0.813603 
-0.0405767 0.022288 -0.0024172 -0.58629 -0.193275 -0.786708 
-0.0357455 0.0141488 -0.00243493 -0.426987 -0.390796 -0.815451 
-0.0325366 0.0106704 -0.00244817 -0.426987 -0.390796 -0.815451 
-0.0376304 0.018936 -0.00303139 -0.523481 -0.305227 -0.79549 
-0.0352902 0.0149223 -0.00303132 -0.523481 -0.305227 -0.79549 
-0.0256588 0.00358493 -0.00192579 -0.32102 -0.450249 -0.8332 
-0.0293277 0.00719197 -0.00246141 -0.435528 -0.395543 -0.808617 
-0.0216039 0.00172151 -0.00249546 -0.328308 -0.458403 -0.825881 
-0.0172577 -0.000150975 -0.00251554 -0.212851 -0.484953 -0.848242 
-0.0172653 -0.00104405 -0.00200017 -0.213142 -0.486964 -0.847016 
-0.0254658 0.00445674 -0.00247843 -0.325143 -0.453911 -0.829606 
-0.0252728 0.00532854 -0.00303108 -0.325143 -0.453911 -0.829606 
-0.0129114 -0.00202348 -0.00253562 -0.214008 -0.489053 -0.845593 
-0.0082709 -0.00295142 -0.00255787 -0.102046 -0.489559 -0.865979 
-0.00363036 -0.00387932 -0.00258011 0.00123567 -0.465192 -0.885209 
-0.00844893 -0.00207613 -0.00303074 -0.101703 -0.48879 -0.866453 
0.00145764 -0.00464137 -0.00217653 0.000334998 -0.458455 -0.888718 
0.00583376 -0.00376492 -0.00262701 0.0891784 -0.416509 -0.904747 
0.0011017 -0.00382213 -0.00260356 0.00198235 -0.461549 -0.887113 
0.0104505 -0.00272512 -0.00265063 0.0879525 -0.411114 -0.907331 
0.0156619 -0.00235823 -0.00231811 0.15227 -0.345309 -0.926054 
0.0144726 -0.00101238 -0.00303038 0.0890798 -0.410412 -0.907539 
0.0150673 -0.0016853 -0.00267425 0.0865961 -0.405155 -0.910137 
0.0236666 0.0022687 -0.00271978 0.200314 -0.27576 -0.940123 
0.0282302 0.00464274 -0.00245112 0.194972 -0.27112 -0.942592 
0.0187089 0.000895452 -0.00303033 0.154525 -0.343097 -0.926503 
0.0229453 0.00280328 -0.00303028 0.154525 -0.343097 -0.926503 
0.031256 0.00792425 -0.00276159 0.222415 -0.200311 -0.954153 
0.0274613 0.00509647 -0.00274068 0.196751 -0.268377 -0.943007 
0.0375037 0.0150342 -0.00279788 0.211313 -0.192423 -0.95829 
0.0343798 0.0114792 -0.00277973 0.217827 -0.194452 -0.95642 
0.0398201 0.0191609 -0.00281246 0.222596 -0.128365 -0.966423 
0.0407068 0.0190593 -0.00259475 0.2179 -0.126846 -0.967693 
0.0421366 0.0232877 -0.00282704 0.2179 -0.126846 -0.967693 
0.0435445 0.027806 -0.00283742 0.217992 -0.0705037 -0.973401 
0.0453901 0.0370364 -0.00285354 0.209335 -0.0201814 -0.977636 
0.0426563 0.0277208 -0.00303018 0.217946 -0.069792 -0.973462 
0.0458278 0.0417486 -0.00285927 0.209474 -0.020648 -0.977596 
0.0466506 0.0421063 -0.0026883 0.193452 0.0238496 -0.98082 
0.045005 0.041391 -0.00303025 0.212114 -0.0208925 -0.977022 
0.0452763 0.0464489 -0.0028601 0.209336 0.02439 -0.977539 
0.0438763 0.0562236 -0.00268325 0.181441 0.0646988 -0.981271 
0.0454551 0.0516703 -0.00269153 0.181441 0.0646988 -0.981271 
0.0439944 0.050628 -0.00303035 0.210288 0.0229981 -0.977369 
0.0447247 0.0511492 -0.00286094 0.201341 0.0234516 -0.97924 
0.0425398 0.0550406 -0.00303041 0.21031 0.0693124 -0.975174 
0.043208 0.0556321 -0.00285683 0.194991 0.0668682 -0.978523 
0.0392758 0.0641845 -0.00284386 0.185804 0.116399 -0.975668 
0.0368602 0.0682541 -0.002835 0.209423 0.122085 -0.970174 
0.030727 0.0760625 -0.00258627 0.197026 0.185422 -0.962704 
0.0332814 0.0709199 -0.0030307 0.178263 0.168138 -0.969511 
0.02282 0.0815737 -0.00251798 0.175347 0.253503 -0.951309 
0.0265805 0.0779462 -0.0027915 0.152145 0.230195 -0.961178 
0.0183723 0.0825539 -0.00275439 0.121726 0.292705 -0.948423 
0.0183799 0.0834471 -0.00247775 0.121726 0.292705 -0.948423 
0.0227185 0.0806814 -0.00277446 0.121726 0.292705 -0.948423 
0.0263875 0.0770742 -0.00303085 0.157788 0.228769 -0.960608 
0.0092075 0.0862297 -0.00239293 0.058921 0.352455 -0.933972 
0.0141123 0.0835323 -0.00303111 0.135211 0.323882 -0.936386 
0.0140261 0.0844264 -0.00273431 0.135211 0.323882 -0.936386 
0.00938558 0.0853543 -0.00271206 0.0662332 0.353605 -0.933047 
-0.00471907 0.0861678 -0.00264292 -0.0173433 0.436972 -0.899308 
-0.000343007 0.0870444 -0.00230139 -0.00941034 0.403462 -0.914948 
-0.00985416 0.0858556 -0.00220711 -0.109274 0.429906 -0.896237 
-0.0145473 0.0847613 -0.00215981 -0.117218 0.464777 -0.877634 
-0.0189103 0.0827151 -0.00211423 -0.212493 0.433589 -0.875698 
-0.0139526 0.0840882 -0.00259568 -0.192334 0.408022 -0.892483 
-0.00933582 0.085128 -0.0026193 -0.110283 0.469762 -0.875878 
-0.0133579 0.0834151 -0.00303155 -0.0951546 0.43852 -0.89367 
-0.0294814 0.0821782 0.00164316 -0.557507 0.760514 -0.332871 
-0.0248828 0.084835 1.11796e-05 -0.557507 0.760514 -0.332871 
-0.0369147 0.0746537 1.10739e-05 -0.703446 0.62798 -0.332874 
-0.0337882 0.0790211 0.00164312 -0.703449 0.627978 -0.332871 
-0.0373445 0.0750374 0.00164309 -0.703449 0.627977 -0.332874 
-0.0409007 0.0710538 0.00164307 -0.703445 0.62798 -0.332876 
-0.0430509 0.0661319 1.10478e-05 -0.818637 0.467998 -0.332884 
-0.0435511 0.0664178 0.00164307 -0.818639 0.468 -0.332874 
-0.0440512 0.0667037 0.00327509 -0.818638 0.468002 -0.332876 
-0.0494584 0.0516104 0.0016431 -0.898054 0.287565 -0.332873 
-0.0488913 0.0514924 1.1079e-05 -0.898054 0.287565 -0.332873 
-0.0462014 0.0617818 0.00164307 -0.89805 0.287567 -0.332885 
-0.0456712 0.0615484 1.10453e-05 -0.89805 0.287567 -0.332885 
-0.0478299 0.0566961 0.00164308 -0.89805 0.287567 -0.332885 
-0.0500255 0.0517284 0.00327512 -0.898054 0.287571 -0.33287 
-0.0499939 0.0462973 0.00164314 -0.938218 0.0945688 -0.332872 
-0.0505672 0.046355 0.00327516 -0.938216 0.0945713 -0.332877 
-0.0499487 0.0356757 0.00164323 -0.937376 -0.102565 -0.332876 
-0.0488018 0.0304902 1.12627e-05 -0.937379 -0.102569 -0.332867 
-0.0499502 0.0409866 1.11535e-05 -0.937374 -0.102567 -0.332883 
-0.0505295 0.0409841 0.00164318 -0.937375 -0.102569 -0.332876 
-0.0493679 0.0303674 0.00164328 -0.937374 -0.102568 -0.332882 
-0.0505214 0.0356131 0.00327525 -0.937374 -0.102569 -0.33288 
-0.0476961 0.0252957 0.00164336 -0.895568 -0.295221 -0.332871 
-0.0471489 0.0254761 1.13321e-05 -0.895569 -0.295221 -0.332867 
-0.0460242 0.0202241 0.00164343 -0.814617 -0.474969 -0.332872 
-0.0406448 0.0109977 0.00164359 -0.814616 -0.474964 -0.33288 
-0.0330788 0.00352352 1.1747e-05 -0.698064 -0.633959 -0.33287 
-0.0334646 0.00309138 0.00164378 -0.698064 -0.633959 -0.33287 
-0.0366282 0.00743186 1.16569e-05 -0.69806 -0.63396 -0.332876 
-0.0247975 -0.00314935 0.00164397 -0.551005 -0.765241 -0.332866 
-0.0291311 -2.89753e-05 0.00164387 -0.551005 -0.765241 -0.332866 
-0.0287944 0.000438537 1.18434e-05 -0.551004 -0.765242 -0.332866 
-0.02451 -0.00264644 1.19384e-05 -0.379859 -0.863077 -0.332874 
-0.0199099 -0.00530053 0.00164407 -0.379855 -0.863079 -0.332873 
-0.0150223 -0.00745169 0.00164416 -0.192114 -0.923199 -0.332859 
-0.0148456 -0.00690002 1.21302e-05 -0.192114 -0.923199 -0.332859 
-0.00979421 -0.00853966 0.00164426 -0.192113 -0.923195 -0.332871 
0.00611393 -0.00958208 0.00164452 0.00402602 -0.942967 -0.33286 
0.00605093 -0.00900624 1.24846e-05 0.00402832 -0.942965 -0.332867 
0.000773898 -0.00960485 0.00164443 0.00402877 -0.942967 -0.332861 
0.0113325 -0.00844956 0.0016446 0.19999 -0.921516 -0.332883 
0.0114547 -0.00901255 0.00327663 0.199992 -0.921523 -0.332865 
0.0262894 -0.00293146 0.00164479 0.387212 -0.859803 -0.332876 
0.0259976 -0.00243103 1.27491e-05 0.38721 -0.859808 -0.332864 
0.0211837 -0.00459892 1.26895e-05 0.387213 -0.859802 -0.332876 
0.0214202 -0.00512424 0.00164473 0.387214 -0.859806 -0.332864 
0.0352924 0.00295414 0.00327691 0.557516 -0.760511 -0.332864 
0.034903 0.00338297 0.00164487 0.557516 -0.760511 -0.332864 
0.0420155 0.0113503 0.00164492 0.703451 -0.627981 -0.332863 
0.0380294 0.00775029 1.28541e-05 0.703452 -0.627979 -0.332863 
0.0384592 0.00736663 0.0016449 0.703448 -0.627978 -0.332874 
0.0473161 0.0206222 0.00164492 0.818641 -0.468004 -0.332864 
0.0441656 0.0162722 1.28783e-05 0.818639 -0.468001 -0.332873 
0.0415454 0.0116888 1.28765e-05 0.818639 -0.468001 -0.332873 
0.0446658 0.0159862 0.00164492 0.818643 -0.468002 -0.332862 
0.0505731 0.0307936 0.00164489 0.898053 -0.287569 -0.332874 
0.048396 0.0258836 1.28665e-05 0.898053 -0.287569 -0.332874 
0.0511403 0.0306756 0.00327693 0.898056 -0.287575 -0.33286 
0.050006 0.0309116 1.28467e-05 0.938217 -0.0945677 -0.332874 
0.0511087 0.0361068 0.00164485 0.938217 -0.0945715 -0.332874 
0.0504907 0.0466656 1.27188e-05 0.937379 0.102561 -0.332868 
0.0516442 0.0414199 0.00164481 0.937379 0.102561 -0.332868 
0.0510487 0.0521595 0.00327674 0.937378 0.102562 -0.332872 
0.0510634 0.0467283 0.00164476 0.937379 0.102563 -0.332868 
0.0488107 0.0571083 0.00164463 0.895572 0.295205 -0.332873 
0.0482636 0.0569279 1.25945e-05 0.895576 0.295213 -0.332856 
0.0504826 0.0520367 0.0016447 0.895572 0.295209 -0.33287 
0.0493579 0.0572886 0.00327667 0.895573 0.295216 -0.332862 
0.047139 0.0621799 0.00164456 0.895566 0.295203 -0.33289 
0.0412923 0.0710638 1.2361e-05 0.814622 0.474959 -0.332875 
0.0444493 0.0667931 0.00164448 0.814622 0.474959 -0.332875 
0.0439515 0.0665029 1.24432e-05 0.814621 0.474958 -0.332877 
0.0466108 0.061942 1.25244e-05 0.814621 0.47496 -0.332874 
0.0377429 0.0749721 1.22711e-05 0.698071 0.633948 -0.332878 
0.0417595 0.0714063 0.0016444 0.698071 0.633949 -0.332876 
0.0385959 0.0757468 0.00327634 0.698072 0.633948 -0.332874 
0.0381694 0.0753595 0.0016443 0.698073 0.633954 -0.332861 
0.0259122 0.0855533 0.00164402 0.551007 0.765232 -0.332882 
0.0302458 0.082433 0.00164412 0.551007 0.765232 -0.332882 
0.0299091 0.0819654 1.20848e-05 0.551015 0.765233 -0.332867 
0.0261997 0.0860562 0.00327605 0.551009 0.765235 -0.332874 
0.0210246 0.0877045 0.00164392 0.37987 0.863073 -0.332872 
0.016137 0.0898557 0.00164383 0.379871 0.863073 -0.33287 
0.0256247 0.0850504 1.19887e-05 0.379869 0.863075 -0.332868 
0.0207925 0.0871772 1.18928e-05 0.379867 0.863074 -0.332872 
0.00568086 0.0920316 0.00164364 0.192128 0.923195 -0.332863 
0.0159603 0.089304 1.17973e-05 0.192124 0.923193 -0.33287 
0.0109089 0.0909437 0.00164373 0.192123 0.923192 -0.332874 
0.000340832 0.0920088 0.00164355 -0.00401459 0.942963 -0.332874 
-0.0203055 0.0875282 0.00164326 -0.387211 0.859805 -0.332871 
-0.0154364 0.089721 0.00164332 -0.19998 0.921522 -0.332875 
-0.0100956 0.0902905 1.13694e-05 -0.19998 0.921522 -0.332875 
-0.0049992 0.0919861 0.00164347 -0.199977 0.921523 -0.332874 
-0.00493619 0.0914102 1.14415e-05 -0.199977 0.921523 -0.332874 
-0.0156178 0.0902712 0.00327534 -0.199987 0.921523 -0.332869 
-0.0152551 0.0891709 1.12958e-05 -0.387209 0.859802 -0.332882 
-0.0381404 0.0757479 0.00653917 -0.7377 0.658557 -0.148665 
-0.0343436 0.0796326 0.00490716 -0.7377 0.658557 -0.148665 
-0.0299671 0.0828408 0.00490721 -0.584652 0.797545 -0.148674 
-0.0205421 0.0880535 0.00327528 -0.406063 0.90167 -0.148674 
-0.0301122 0.0830387 0.00653923 -0.584652 0.797546 -0.148669 
-0.0255907 0.086049 0.00490725 -0.584654 0.797543 -0.148677 
-0.0345094 0.0798152 0.00653919 -0.584653 0.797547 -0.148662 
-0.0379573 0.0755845 0.00490714 -0.737698 0.658559 -0.148665 
-0.0415711 0.0715364 0.00490712 -0.737699 0.658556 -0.148674 
-0.0469574 0.0621145 0.00490711 -0.941779 0.301571 -0.148686 
-0.0486122 0.0569466 0.00490713 -0.941779 0.301571 -0.148686 
-0.0444773 0.0669473 0.00653914 -0.858501 0.490786 -0.148679 
-0.0471832 0.0622139 0.00653914 -0.858501 0.490786 -0.148679 
-0.0505086 0.051829 0.00653917 -0.94178 0.301574 -0.14867 
-0.0516022 0.0409795 0.00653925 -0.983019 -0.107557 -0.148677 
-0.0508113 0.0463796 0.00490719 -0.983901 0.099177 -0.148672 
-0.0510554 0.0464043 0.00653921 -0.9839 0.0991733 -0.148681 
-0.0513555 0.0409806 0.00490722 -0.9839 0.0991733 -0.148681 
-0.049934 0.0302445 0.00327531 -0.983021 -0.107562 -0.14866 
-0.0507653 0.0355864 0.00490728 -0.98302 -0.107558 -0.148671 
-0.0510092 0.0355597 0.00653931 -0.983019 -0.107558 -0.148677 
-0.0501751 0.0301922 0.00490733 -0.983019 -0.107558 -0.148677 
-0.0504162 0.0301398 0.00653937 -0.983019 -0.107557 -0.148679 
-0.0470024 0.0197836 0.00653951 -0.854283 -0.498091 -0.148679 
-0.0467774 0.0198849 0.00490748 -0.854283 -0.498091 -0.148679 
-0.0484762 0.0250385 0.00490741 -0.939174 -0.309589 -0.148686 
-0.0376629 0.00649228 0.00490774 -0.732053 -0.664826 -0.148674 
-0.041112 0.0106552 0.00327562 -0.854283 -0.498092 -0.148675 
-0.0338504 0.00265922 0.0032758 -0.732056 -0.664824 -0.148667 
-0.0203397 -0.00627697 0.00654016 -0.398357 -0.905101 -0.148674 
-0.0253299 -0.00408062 0.00654006 -0.577833 -0.802499 -0.148679 
-0.0152742 -0.00823834 0.00490823 -0.398356 -0.905101 -0.148675 
-0.0202408 -0.00605239 0.00490813 -0.398356 -0.905101 -0.148675 
-0.00467373 -0.0106949 0.00654045 0.0042193 -0.988876 -0.148684 
-0.00464898 -0.0104494 0.00490842 0.00421691 -0.988877 -0.148677 
-0.0100116 -0.00958412 0.00654035 -0.20147 -0.968143 -0.14869 
-0.00996158 -0.00934387 0.00490832 -0.201471 -0.968144 -0.148685 
0.00620376 -0.0104032 0.00490859 0.00422025 -0.988878 -0.148672 
0.00623059 -0.0106484 0.00654063 0.00422025 -0.988876 -0.148682 
0.000777389 -0.0104263 0.0049085 0.00422025 -0.988876 -0.148682 
0.016887 -0.00833581 0.00654078 0.406065 -0.901669 -0.148672 
0.0217576 -0.00587325 0.0049088 0.406066 -0.901668 -0.148678 
0.0168097 -0.0081015 0.00490874 0.209727 -0.966391 -0.148674 
0.0268297 -0.00385816 0.0065409 0.584659 -0.79754 -0.148676 
0.0216568 -0.00564953 0.00327677 0.406066 -0.901669 -0.14867 
0.0218583 -0.00609699 0.00654084 0.406065 -0.901668 -0.148678 
0.0267054 -0.00364501 0.00490886 0.406065 -0.901668 -0.148677 
0.0392551 0.00665616 0.00654101 0.737701 -0.658556 -0.148665 
0.0356241 0.00258886 0.00654098 0.737701 -0.658556 -0.148665 
0.0453789 0.0155785 0.004909 0.858502 -0.490787 -0.148668 
0.0455919 0.0154568 0.00654103 0.858502 -0.490787 -0.148668 
0.0426858 0.0108676 0.00490899 0.858502 -0.490787 -0.148668 
0.0451659 0.0157003 0.00327696 0.858501 -0.490788 -0.148673 
0.0482979 0.0201901 0.00654104 0.8585 -0.49079 -0.148669 
0.0513818 0.0306253 0.00490896 0.983903 -0.0991756 -0.148658 
0.0494933 0.0255322 0.00327695 0.941779 -0.301574 -0.148676 
0.0497269 0.0254574 0.00490898 0.94178 -0.30158 -0.148658 
0.0521239 0.0468443 0.00654087 0.983021 0.10756 -0.14866 
0.0527169 0.0414245 0.00654092 0.983021 0.107558 -0.148666 
0.0522235 0.0414224 0.00327685 0.9839 -0.0991757 -0.148677 
0.051926 0.0360244 0.00490893 0.9839 -0.0991781 -0.148673 
0.0515309 0.0522642 0.00654081 0.939178 0.309588 -0.148663 
0.0512898 0.0522118 0.00490878 0.983022 0.107555 -0.14866 
0.05188 0.0468176 0.00490883 0.983022 0.107555 -0.14866 
0.0481171 0.0626204 0.00654067 0.939177 0.309588 -0.148668 
0.0478921 0.0625191 0.00490863 0.939177 0.309589 -0.148664 
0.0389592 0.0760767 0.00654041 0.732061 0.66482 -0.148667 
0.0426246 0.0720405 0.0065405 0.732061 0.66482 -0.148667 
0.0387776 0.0759117 0.00490837 0.732061 0.66482 -0.148667 
0.0424257 0.0718947 0.00490846 0.854285 0.498093 -0.148663 
0.0422267 0.0717488 0.00327643 0.854285 0.49809 -0.14867 
0.0451589 0.0672069 0.00490855 0.854285 0.49809 -0.14867 
0.0453709 0.0673304 0.00654058 0.854285 0.498091 -0.148667 
0.0351294 0.0799288 0.00490828 0.577839 0.802496 -0.14867 
0.0308692 0.0832987 0.00654021 0.577836 0.802496 -0.148678 
0.0349651 0.0797448 0.00327625 0.732059 0.664822 -0.148665 
0.0214544 0.0886809 0.00654001 0.398356 0.9051 -0.148679 
0.0263222 0.0862704 0.00490808 0.398363 0.905101 -0.148659 
0.0213555 0.0884564 0.00490798 0.398363 0.905101 -0.148659 
0.0305824 0.0829005 0.00327615 0.577839 0.802497 -0.148663 
0.0164641 0.0908773 0.00653992 0.201476 0.968144 -0.148679 
0.0163889 0.0906423 0.00490789 0.201476 0.968144 -0.148679 
0.0110763 0.0917479 0.00490779 0.201481 0.968145 -0.148666 
0.00578843 0.0930989 0.00653972 -0.00421654 0.988878 -0.148669 
0.00576369 0.0928535 0.0049077 0.201475 0.968145 -0.148669 
-0.00508905 0.0928072 0.00490752 -0.209719 0.966394 -0.148663 
0.000338369 0.092585 0.00327558 -0.00420941 0.98888 -0.148655 
-0.00511589 0.0930524 0.00653955 -0.00421514 0.988876 -0.148681 
0.000336265 0.0930757 0.00653964 -0.00421514 0.988876 -0.148681 
-0.015695 0.0905055 0.00490737 -0.209727 0.966391 -0.148673 
-0.01034 0.0914166 0.00327542 -0.209727 0.966391 -0.148673 
-0.0104441 0.0918961 0.00653947 -0.209722 0.96639 -0.148685 
-0.0257149 0.0862621 0.00653928 -0.406065 0.90167 -0.148669 
-0.0206428 0.0882773 0.00490731 -0.406065 0.90167 -0.148669 
-0.0291408 0.0817136 1.11365e-05 -0.423314 0.577461 -0.6981 
-0.0197495 0.0862935 -0.000786771 -0.294007 0.652862 -0.698091 
-0.0048511 0.0906325 -0.000786569 -0.151844 0.699721 -0.698093 
-0.00993061 0.0895302 -0.000786641 -0.151838 0.699715 -0.6981 
0.00546586 0.0898985 -0.00158441 -0.00304323 0.716 -0.698093 
0.000343288 0.0914327 1.15277e-05 -0.00304437 0.715999 -0.698095 
0.0154832 0.0878139 -0.00158423 0.145889 0.700983 -0.698097 
0.010633 0.0896179 -0.000786311 0.145892 0.700999 -0.69808 
0.0204791 0.0864651 -0.000786125 0.288446 0.655344 -0.698085 
0.0252365 0.0843713 -0.00078603 0.288445 0.655339 -0.69809 
0.0294545 0.0813341 -0.000785937 0.418398 0.581049 -0.698087 
0.0331516 0.0777133 -0.00158386 0.530062 0.481363 -0.698086 
0.036591 0.073926 -0.00158377 0.530062 0.481363 -0.698086 
0.0406614 0.0706013 -0.000785664 0.618559 0.360639 -0.698086 
0.0426073 0.0657191 -0.00158361 0.618559 0.360639 -0.698086 
0.037167 0.0744491 -0.000785753 0.530067 0.481366 -0.69808 
0.0451841 0.0612995 -0.00158353 0.680031 0.224154 -0.698078 
0.0458974 0.0616208 -0.000785503 0.680021 0.224154 -0.698088 
0.0475247 0.0566843 -0.000785434 0.680021 0.224154 -0.698088 
0.0467858 0.0564408 -0.00158346 0.680021 0.224154 -0.698088 
0.0483874 0.051582 -0.00158339 0.680021 0.224154 -0.698088 
0.0491519 0.0517479 -0.000785366 0.680029 0.224154 -0.69808 
0.0499165 0.0519138 1.26646e-05 0.680034 0.224154 -0.698075 
0.0489872 0.0363206 -0.00158325 0.712413 -0.0718175 -0.698076 
0.047655 0.0261209 -0.000785169 0.681907 -0.218357 -0.698086 
0.0492401 0.031071 -0.000785187 0.681905 -0.218357 -0.698087 
0.0497613 0.0362426 -0.000785223 0.712397 -0.0718114 -0.698093 
0.0505355 0.0361645 1.28101e-05 0.712404 -0.0718145 -0.698086 
0.0460699 0.0211707 -0.000785152 0.681906 -0.218357 -0.698086 
0.0467859 0.0208556 1.28814e-05 0.681915 -0.21836 -0.698077 
0.0409105 0.0121459 -0.000785157 0.621613 -0.355363 -0.698079 
