ply
format ascii 1.0
comment VCGLIB generated
element vertex 749
property float x
property float y
property float z
property float nx
property float ny
property float nz
element face 0
property list uchar int vertex_indices
end_header
-0.00515989 0.0424017 -0.0391764 0.637071 5.08049e-05 0.770805 
0.00468057 0.140663 -0.0202005 -0.29137 -4.73678e-05 -0.956611 
-0.00269167 0.0229551 -0.0415296 -0.29058 5.5789e-07 -0.956851 
0.0058816 0.146729 -0.0408634 -0.29139 -3.74784e-05 0.956604 
0.00917496 0.0339099 -0.0227339 -0.637024 2.53594e-05 -0.770844 
-0.00939949 0.0349554 -0.0275781 -0.957025 2.56228e-06 0.290006 
4.9525e-05 0.130958 -0.0415303 0.0987073 -4.84941e-05 0.995117 
0.0072832 0.0925569 -0.0206601 0.471825 -1.25551e-06 0.881692 
0.000399488 0.115188 -0.0415658 0.0985269 -5.03892e-05 0.995134 
0.00173368 0.122558 -0.019167 0.098107 -1.83619e-07 0.995176 
-0.00374558 0.132158 -0.0409773 -0.471867 9.27626e-07 -0.88167 
-0.00473311 0.0781565 -0.021113 -0.471836 7.81688e-07 0.881687 
0.00829072 0.129745 -0.0220016 -0.635914 5.45888e-06 -0.77176 
0.0119249 0.0637562 -0.0254094 0.882136 -1.49689e-06 0.470995 
0.003847 0.106696 -0.0414854 -0.196132 -5.01622e-05 0.980578 
0.0130744 0.0925569 -0.0330644 0.95704 -1.72401e-06 -0.289957 
-0.0077362 0.0661562 -0.0240654 -0.773375 1.85385e-06 0.633949 
0.00068642 0.0411886 -0.0198325 0.098684 -5.22884e-05 -0.995119 
0.00691419 0.093352 -0.021116 -0.473954 -1.0033e-05 -0.88055 
0.0123206 0.0569589 -0.0331959 -0.95726 0.000120358 0.289228 
0.00992641 0.151358 -0.0225937 0.773378 -1.61974e-06 0.633945 
0.00428002 0.144302 -0.0200787 -0.291363 -4.81175e-05 -0.956613 
-0.00672142 0.118958 -0.0228275 -0.773375 1.4408e-06 0.633949 
-0.00829993 0.0290575 -0.0350379 0.88327 0.000130493 0.468865 
-0.00262213 0.0569589 -0.0206545 0.47394 -7.53586e-06 -0.880557 
0.0017514 0.142958 -0.0191687 0.0981013 -5.55102e-07 0.995176 
0.00283009 0.0421556 -0.0192751 0.0980976 -1.97929e-07 0.995177 
0.00463053 0.112762 -0.0412458 -0.292132 -4.79806e-05 0.956378 
0.00408119 0.0901568 -0.042139 0.290579 -5.41334e-07 -0.956851 
0.009279 0.0111401 -0.0276373 0.656663 -0.704485 0.269248 
-0.00845871 0.112762 -0.0267866 0.957501 0.000146362 -0.28843 
-3.33187e-05 0.124893 -0.0415224 0.0986742 -4.71206e-05 0.99512 
-0.00425715 0.0411886 -0.0398964 0.473941 8.67891e-06 0.880557 
0.0125766 0.144302 -0.0300289 -0.995227 0.000126854 -0.0975904 
-0.0090061 0.0409556 -0.0352582 -0.882137 1.40668e-06 -0.470994 
0.00278113 0.0605982 -0.0415934 -0.0987079 -5.61612e-05 0.995116 
0.00535668 0.0745564 -0.0417517 0.290579 -5.8648e-07 -0.956851 
-0.00911219 0.022992 -0.0315356 0.995252 0.000170569 0.0973322 
-0.00972504 0.0481557 -0.0289395 -0.995197 2.22743e-06 0.0978969 
-0.00391817 0.0397555 -0.0206769 -0.471828 6.62588e-07 0.881691 
-0.00854518 0.106957 -0.0254408 -0.882131 1.78922e-06 0.471003 
-0.00795031 0.115358 -0.0243267 -0.831761 1.67603e-06 0.555133 
-0.00023345 0.137024 -0.041502 0.0987036 -4.81369e-05 0.995117 
0.000651694 0.10427 -0.0198393 0.09838 -4.81552e-05 -0.995149 
0.0124422 0.12004 -0.0327402 -0.995251 0.000127214 0.0973404 
-0.00306291 0.0351231 -0.0405391 0.473946 9.03262e-06 0.880554 
0.00362973 0.0302706 -0.0415109 -0.0986971 -5.64173e-05 0.995117 
0.00281239 0.0349554 -0.0422886 0.0981601 -5.03151e-07 -0.995171 
0.0110136 0.129745 -0.0250153 -0.882711 7.91522e-05 -0.469916 
0.0106365 0.0709563 -0.0234602 0.773375 -1.44045e-06 0.633949 
-0.00981022 0.0997571 -0.0317548 -0.995194 1.80308e-06 -0.0979231 
-0.00921239 0.149155 -0.0306985 0.995223 0.000170497 -0.0976285 
0.0124212 0.046041 -0.0285722 -0.98101 0.000124264 -0.193956 
0.0123438 0.0517558 -0.035368 0.882133 -1.89666e-06 -0.471 
-0.00116096 0.0637562 -0.0195675 -0.290579 5.67621e-07 0.956851 
-0.00487246 0.0613561 -0.040339 -0.634821 1.36356e-06 -0.772659 
0.0124768 0.0569589 -0.0291245 -0.995251 0.000130809 -0.0973375 
0.0048635 0.0829567 -0.0196604 0.290579 -5.86411e-07 0.956851 
-0.00525714 0.056556 -0.040023 -0.634827 1.09011e-06 -0.772654 
-0.00720639 0.0265552 -0.0381431 -0.773375 1.65415e-06 -0.633949 
0.0116407 0.0957782 -0.026201 -0.8833 9.65545e-05 -0.468808 
0.012503 0.107909 -0.0293258 -0.995227 0.000126795 -0.0975888 
0.0124191 0.0313553 -0.0352268 0.924043 -1.81671e-06 -0.382287 
0.00635501 0.137024 -0.020817 -0.472901 -2.55361e-05 -0.881116 
-0.00487099 0.126106 -0.0220124 0.636485 4.01567e-05 -0.771289 
-0.00965718 0.145358 -0.0331325 -0.957039 2.35045e-06 -0.289958 
-0.00909968 0.103057 -0.0318035 0.995223 0.000166172 0.0976235 
-0.00987467 0.108157 -0.0310997 -0.995194 2.17204e-06 -0.0979223 
0.0125414 0.151581 -0.0317693 -0.995227 0.000130806 0.0975904 
0.000502225 0.0545327 -0.0415789 0.0987073 -4.8799e-05 0.995116 
-0.00979299 0.0301553 -0.02963 -0.995198 1.9254e-06 0.0978777 
-0.000415588 0.121253 -0.0414847 0.196091 -4.25995e-05 0.980586 
-0.00814977 0.124893 -0.0353475 0.883268 0.00013068 0.468868 
-0.00836089 0.0901568 -0.0250956 -0.882134 1.57696e-06 0.470999 
-0.00836179 0.0217789 -0.0349193 0.924643 0.000138976 0.380835 
0.01226 0.0685563 -0.0260371 0.882135 -1.57931e-06 0.470996 
0.00921678 0.0649562 -0.0395602 0.634819 -1.13833e-06 -0.772661 
-0.00746565 0.0469557 -0.0237353 -0.773375 1.72234e-06 0.633949 
0.0117921 0.0448279 -0.0349337 -0.882732 9.64409e-05 0.469876 
0.010023 0.110335 -0.0377647 -0.774264 6.31567e-05 0.632863 
0.0038622 0.0302706 -0.0414846 -0.292057 -4.79033e-05 0.956401 
0.0102081 0.0613561 -0.0386244 0.773375 -1.44007e-06 -0.633949 
0.00499964 0.128558 -0.0197018 0.29058 -5.63615e-07 0.956851 
0.00344916 0.056556 -0.0193361 0.0981118 -9.27119e-08 0.995175 
0.00602677 0.0496803 -0.0206383 -0.472921 -2.57831e-05 -0.881105 
-0.00860465 0.0545327 -0.0273007 0.957503 0.00014641 -0.288424 
-0.00913157 0.0787948 -0.0314352 0.995252 0.000170626 0.0973326 
-0.0001338 0.13945 -0.0415117 0.098699 -4.87612e-05 0.995117 
0.00790074 0.107909 -0.0397497 -0.637045 6.09013e-06 0.770827 
-6.32242e-05 0.0715162 -0.0199084 0.0984019 -4.80522e-05 -0.995147 
-0.00304047 0.0301553 -0.0413548 -0.471785 8.3099e-07 -0.881714 
0.00860657 0.0326968 -0.0222642 -0.637034 2.56493e-05 -0.770836 
-0.00865276 0.0521065 -0.0274616 0.957502 0.000146251 -0.288427 
0.00761041 0.150368 -0.0214914 -0.473956 -9.75221e-06 -0.880548 
-0.00751072 0.0613561 -0.0237903 -0.773375 1.44236e-06 0.633949 
-0.00885146 0.109122 -0.0280902 0.957264 0.000157904 -0.289215 
-0.00815137 0.124958 -0.0247033 -0.882135 1.75013e-06 0.470997 
0.00679215 0.0351231 -0.0403804 -0.47396 -2.67556e-05 0.880546 
-0.00896412 0.0901568 -0.0353366 -0.882127 1.96236e-06 -0.471012 
0.000760805 0.0709563 -0.042306 -0.0981393 8.09417e-07 -0.995173 
0.00891461 0.105757 -0.0398085 0.634824 -1.0455e-06 -0.772657 
0.00812949 0.0541559 -0.040449 0.471784 -9.51842e-07 -0.881714 
0.00872785 0.107909 -0.0390667 -0.635925 2.59861e-05 0.771751 
-0.00707106 0.0457557 -0.0232539 -0.773375 1.70798e-06 0.633949 
0.00578182 0.056556 -0.0416226 0.290584 -1.1418e-06 -0.95685 
0.0117551 0.0654506 -0.0350074 -0.882724 9.62848e-05 0.469892 
-0.00981203 0.0697563 -0.0317371 -0.995199 2.42468e-06 -0.0978751 
0.00997133 0.0649562 -0.0226487 0.773381 -1.68586e-06 0.633941 
0.00903326 0.0448279 -0.0388132 -0.637047 6.09601e-06 0.770825 
-0.00421594 0.0505558 -0.0208362 -0.471823 9.51503e-07 0.881693 
-0.00897145 0.128532 -0.0329539 0.957506 0.000158089 0.288413 
-0.00172214 0.0913569 -0.041824 -0.290579 5.68263e-07 -0.956851 
-0.000217475 0.150368 -0.0415029 0.0987073 -4.84942e-05 0.995117 
0.00496546 0.0421556 -0.0418705 0.290579 -5.52371e-07 -0.956851 
-0.0016153 0.0909258 -0.0411202 0.292118 -2.62838e-05 0.956382 
-0.00719505 0.056556 -0.0234052 -0.773377 1.24394e-06 0.633946 
-0.00421329 0.0472541 -0.0215105 0.472912 8.96782e-06 -0.881109 
-0.00340272 0.0436148 -0.0403563 0.473945 9.65306e-06 0.880555 
-0.00219163 0.100631 -0.0409439 0.292126 -2.54467e-05 0.95638 
-0.00810942 0.154959 -0.0246248 -0.882133 1.66516e-06 0.471001 
0.0121399 0.046041 -0.0276383 -0.95749 0.000120011 -0.288466 
0.00593482 0.0241551 -0.0415761 0.290587 -5.46471e-07 -0.956849 
0.00917567 0.118958 -0.039594 0.634831 -2.23114e-07 -0.772651 
0.0125212 0.146729 -0.0294601 -0.995227 0.000127242 -0.0975889 
-0.00123152 0.124893 -0.0201949 0.291366 -2.57177e-05 -0.956612 
-0.00913612 0.156159 -0.0267098 -0.957036 1.7453e-06 0.289968 
-0.0062355 0.0654506 -0.0232347 0.775186 7.29437e-05 -0.631733 
0.0105667 0.12368 -0.0243287 -0.775172 6.26399e-05 -0.631751 
0.00883227 0.151358 -0.0398762 0.63483 -1.53488e-06 -0.772652 
0.00634029 0.138237 -0.0208091 -0.47291 -2.57281e-05 -0.881111 
0.00171521 0.149155 -0.0197362 4.47594e-05 -5.46607e-05 -1 
0.00984837 0.0472541 -0.0234549 -0.775167 6.29035e-05 -0.631756 
0.00898335 0.128558 -0.0218099 0.634826 -1.28061e-06 0.772655 
0.0123682 0.0496803 -0.0330351 -0.95726 0.000120364 0.289228 
0.00991504 0.106957 -0.038982 0.773391 -1.32606e-06 -0.633929 
-0.00197087 0.141876 -0.0410101 0.29137 -3.71496e-05 0.95661 
0.00364752 0.111549 -0.0199253 -0.0987009 -5.19489e-05 -0.995117 
-0.00859689 0.127319 -0.0272377 0.957265 0.000157639 -0.289213 
0.00383029 0.0982045 -0.0199428 -0.0987005 -5.19966e-05 -0.995117 
-0.00708212 0.154959 -0.0382944 -0.77338 1.96515e-06 -0.633942 
0.0115061 0.104557 -0.0246248 0.882133 -1.66031e-06 0.471001 
0.00066806 0.110335 -0.019838 0.09838 -4.80535e-05 -0.995149 
0.0002512 0.0872865 -0.0415524 0.0987048 -4.88675e-05 0.995117 
-0.00924978 0.0721564 -0.0270843 -0.95703 2.25812e-06 0.28999 
-0.00252033 0.0727293 -0.0408306 0.472864 -6.86356e-06 0.881136 
0.00169832 0.130958 -0.0423985 0 0 -1 
0.00894205 0.0841567 -0.0397859 0.63483 -1.53488e-06 -0.772652 
0.00330784 0.147758 -0.0422397 0.0981396 -8.08324e-07 -0.995173 
0.00364388 0.141758 -0.0193553 0.0981167 -1.6637e-07 0.995175 
0.0121699 0.0533196 -0.027735 -0.957489 0.000120141 -0.28847 
0.0124193 0.132158 -0.0263352 0.924033 -1.72105e-06 0.382313 
0.00811397 0.132158 -0.0404574 0.471789 -9.0839e-07 -0.881711 
-0.00593524 0.147942 -0.0385426 0.637049 5.07848e-05 0.770823 
0.0081451 0.0096953 -0.030781 0.560001 -0.828487 -0.00264334 
-0.00904429 0.0472541 -0.0322724 0.995252 0.00017055 0.0973345 
0.0124554 0.104557 -0.0264544 0.957035 -1.54401e-06 0.289971 
0.00416673 0.101844 -0.041388 -0.29211 -4.80618e-05 0.956385 
-0.00659746 0.0865568 -0.0388858 -0.773378 1.15479e-06 -0.633945 
-0.00474889 0.0253552 -0.0211214 -0.556021 1.12191e-06 0.831168 
0.00479147 0.0715162 -0.020231 -0.292145 -3.67033e-05 -0.956374 
-0.00843293 0.0411886 -0.0346937 0.957262 0.000146081 0.289221 
0.00689688 0.0533196 -0.0211063 -0.473958 -9.90293e-06 -0.880548 
-0.00665386 0.0709563 -0.038817 -0.773375 1.44007e-06 -0.633949 
-0.0024588 0.0411886 -0.0408639 0.384469 -1.72981e-05 0.923138 
0.00186654 0.081221 -0.0197473 -0.0983974 -5.60547e-05 -0.995147 
0.0126258 0.0448279 -0.0307654 -0.995227 0.000130851 0.0975893 
-0.00867219 0.0217789 -0.0275415 0.957502 0.000146524 -0.288428 
-0.00969362 0.0697563 -0.0286207 -0.995194 2.57374e-06 0.0979225 
0.0108144 0.0375493 -0.0246566 -0.882712 7.92882e-05 -0.469914 
-0.00728413 0.0545327 -0.0369087 0.775188 9.31864e-05 0.631731 
0.0124034 0.0205658 -0.0329067 -0.957493 0.000109198 0.288457 
-0.00144011 0.128532 -0.0202585 0.29137 -2.50809e-05 -0.956611 
0.00894194 0.0265552 -0.0217761 0.634824 -1.01512e-06 0.772657 
-0.00718696 0.115188 -0.0370369 0.775177 9.35393e-05 0.631744 
0.00720489 0.120158 -0.0409438 0.471785 -7.00363e-07 -0.881714 
0.000265577 0.0709563 -0.0193047 -0.0981185 -1.16866e-07 0.995175 
-0.00916349 0.0739424 -0.0311003 0.995252 0.000170352 0.0973325 
-0.00423447 0.106696 -0.0399093 0.473945 8.48366e-06 0.880554 
0.0120591 0.154959 -0.0256605 0.882132 -1.80557e-06 0.471002 
-0.00867023 0.0399755 -0.0275258 0.957506 0.000146038 -0.288414 
-0.00165404 0.128558 -0.0418446 -0.290579 5.63801e-07 -0.956851 
-0.00460767 0.106957 -0.0210459 -0.471835 7.87157e-07 0.881687 
0.0106139 0.0349554 -0.0234327 0.773375 -1.7406e-06 0.633949 
0.00173365 0.108157 -0.042395 0.0981437 -6.09953e-07 -0.995172 
-0.00409518 0.0424017 -0.0399836 0.473922 9.09712e-06 0.880567 
-0.00664852 0.140663 -0.0237316 0.774263 9.3005e-05 -0.632864 
-0.00602597 0.0848603 -0.0229754 0.775192 7.32236e-05 -0.631725 
0.00146714 0.081221 -0.0197572 0.0986962 -5.24246e-05 -0.995118 
-0.00338991 0.0763686 -0.0210679 0.473941 -7.3381e-06 -0.880557 
-0.00686722 0.103057 -0.0374275 0.775187 9.36299e-05 0.631731 
0.00844207 0.0715162 -0.022127 -0.637028 2.52857e-05 -0.770841 
-0.00583411 0.0757565 -0.0395489 -0.634826 1.28082e-06 -0.772655 
0.00057075 0.00836605 -0.0335599 0.11775 0.957562 0.263077 
0.0084679 0.0715162 -0.0221483 -0.637016 2.57862e-05 -0.770851 
0.00288314 0.0349554 -0.0422816 0.0981391 -8.15894e-07 -0.995173 
0.0125024 0.129745 -0.0321374 -0.995227 0.000130746 0.0975861 
0.0081726 0.0313553 -0.021144 0.634829 -9.15773e-07 0.772653 
-0.0074391 0.122467 -0.0247483 0.883281 0.000114125 -0.468845 
-0.00606714 0.0751555 -0.023027 0.77519 7.30801e-05 -0.631728 
0.00300709 0.108157 -0.0192925 0.0981139 -1.54247e-07 0.995175 
-0.00483128 0.0457557 -0.0211891 -0.634816 1.09504e-06 0.772663 
-0.0090143 0.130958 -0.0352425 -0.882141 1.58516e-06 -0.470986 
0.00168044 0.0325553 -0.0191652 -0.0981251 -1.42589e-08 0.995174 
-0.0073314 0.0884996 -0.0245747 0.774261 9.28782e-05 -0.632867 
-0.000459798 0.0424017 -0.0414742 0.29137 -3.74383e-05 0.956611 
0.00910684 0.0505558 -0.0219115 0.634819 -1.03169e-06 0.772661 
0.00389139 0.0913569 -0.0421822 0.0981558 1.0265e-07 -0.995171 
-0.00570143 0.0351231 -0.0387284 0.63705 5.10681e-05 0.770823 
0.0106253 0.104557 -0.0234464 0.773375 -1.68033e-06 0.633949 
0.00953276 0.0685563 -0.0393006 0.634828 -1.41111e-06 -0.772653 
0.0118035 0.0739424 -0.0265121 -0.924651 0.000103356 -0.380816 
0.0112156 0.107909 -0.0360296 -0.883295 7.95282e-05 0.468818 
-0.00970242 0.0373555 -0.0287093 -0.995194 2.49243e-06 0.0979225 
0.00678156 0.0445557 -0.0411702 0.471823 -1.02666e-06 -0.881693 
-0.00968322 0.0481557 -0.0285145 -0.981649 2.46849e-06 0.190698 
0.0121631 0.0375493 -0.0277188 -0.95749 0.000120195 -0.288466 
0.0111624 0.118827 -0.0252967 -0.882708 7.99555e-05 -0.469922 
-0.00870787 0.0326968 -0.0276544 0.957501 0.000146288 -0.288428 
-0.0066935 0.15522 -0.0376465 0.774266 7.32157e-05 0.63286 
-0.00421279 0.0424017 -0.0215103 0.472905 8.84984e-06 -0.881113 
0.0121465 0.137024 -0.0276236 -0.957265 0.000109577 -0.289211 
0.00717348 0.0889568 -0.0409606 0.471796 -1.02513e-06 -0.881708 
-0.00837614 0.0508934 -0.0348866 0.95726 0.00014618 0.289227 
0.0106254 0.147758 -0.0381155 0.773375 -1.68075e-06 -0.633949 
0.0133025 0.0469557 -0.030781 1 -1.8626e-06 0 
0.00249412 0.0781565 -0.04232 0.0981652 3.26779e-08 -0.99517 
0.0124657 0.0925569 -0.0264884 0.957036 -2.06664e-06 0.289968 
-0.00902288 0.0313553 -0.0263352 -0.924033 1.81666e-06 0.382313 
0.00942299 0.135758 -0.0393909 0.634815 -8.31135e-07 -0.772664 
0.0118121 0.145516 -0.0265136 -0.92466 0.00010362 -0.380793 
0.0130693 0.122558 -0.0330815 0.957037 -1.10839e-06 -0.289965 
0.00283192 0.0278444 -0.0198401 -0.0987083 -5.21581e-05 -0.995116 
0.011883 0.0937569 -0.0253309 0.882127 -1.64313e-06 0.471012 
0.0132103 0.135758 -0.0298425 0.995195 -1.68159e-06 0.0979145 
-0.00822162 0.130958 -0.0352138 0.88327 0.00013021 0.468865 
-0.00838924 0.133384 -0.0265455 0.957504 0.000146211 -0.28842 
-0.00374564 0.100957 -0.0409773 -0.471823 9.15354e-07 -0.881693 
0.00660927 0.103357 -0.0412625 0.471793 -2.95893e-07 -0.881709 
-0.00900597 0.108157 -0.0263038 -0.882141 1.69632e-06 0.470986 
-0.0051774 0.0787948 -0.0391644 0.637087 5.0111e-05 0.770792 
-0.00433196 0.0521065 -0.0398562 0.473946 8.76414e-06 0.880554 
0.0113804 0.100957 -0.0243895 0.882133 -1.62199e-06 0.471001 
-0.00142267 0.110335 -0.0202527 0.291356 -2.51823e-05 -0.956615 
0.0115714 0.109122 -0.0260677 -0.883299 9.66783e-05 -0.46881 
0.008757 0.134598 -0.0223858 -0.635921 5.68647e-06 -0.771754 
0.00810864 0.127319 -0.039578 -0.637045 6.04163e-06 0.770827 
0.010614 0.0925569 -0.0234327 0.773375 -1.44044e-06 0.633949 
0.0125229 0.0217789 -0.0296436 -0.995254 0.000130402 -0.0973127 
-0.00556196 0.0557458 -0.038845 0.637047 5.07648e-05 0.770825 
-0.00788282 0.0361554 -0.0242442 -0.773382 1.44087e-06 0.63394 
0.0108464 0.0424017 -0.0367141 -0.883292 7.96005e-05 0.468823 
-0.00788595 0.156433 -0.0255798 0.882718 0.00013079 -0.469902 
0.0131806 0.122558 -0.0320204 0.995193 -2.39895e-06 -0.0979287 
-0.00848649 0.128558 -0.0253309 -0.882127 1.6431e-06 0.471012 
-0.00908021 0.0666637 -0.0294934 0.995252 0.000166195 -0.0973343 
0.000650388 0.130958 -0.0198407 0.098402 -4.87138e-05 -0.995147 
-0.00730144 0.0278444 -0.0368835 0.775196 9.34375e-05 0.63172 
-0.000413034 0.06909 -0.0199429 0.196184 -4.27932e-05 -0.980567 
0.0123437 0.0229551 -0.026194 0.882132 -2.01891e-06 0.471002 
-0.0010928 0.133358 -0.0420151 -0.290579 5.63822e-07 -0.956851 
-0.00813505 0.134598 -0.0260538 0.882713 0.000130466 -0.469912 
0.0125844 0.0545327 -0.0312004 -0.995239 0.000129106 0.0974682 
-0.00391821 0.020555 -0.0206769 -0.471828 6.39931e-07 0.88169 
0.00404717 0.0901568 -0.0421494 0.290579 -5.41334e-07 -0.956851 
-0.0087848 0.0884996 -0.0278808 0.957264 0.00015748 -0.289214 
0.00505067 0.133358 -0.0418446 0.290579 -5.86424e-07 -0.956851 
-0.000527802 0.127319 -0.0199802 0.29218 -3.73921e-05 -0.956363 
-0.0091861 0.110335 -0.0309329 0.995252 0.000170558 0.0973342 
-0.00807613 0.0397555 -0.0369999 -0.882134 2.06306e-06 -0.470999 
-0.00704759 0.109122 -0.0242245 0.774264 9.31411e-05 -0.632863 
-0.00703725 0.0397555 -0.0383494 -0.773383 1.04635e-06 -0.633939 
-0.00769189 0.127319 -0.0252233 0.882711 0.000130814 -0.469916 
0.00267097 0.0709563 -0.0192594 0.0981013 1.7005e-07 0.995176 
0.00183195 0.144302 -0.0197475 -0.0983974 -5.66662e-05 -0.995147 
0.010258 0.122467 -0.0374784 -0.774261 6.33183e-05 0.632866 
-0.00846983 0.0793566 -0.0362624 -0.882137 1.40668e-06 -0.470994 
0.00887323 0.020555 -0.0398424 0.634824 -1.1676e-06 -0.772657 
0.0111214 0.120158 -0.0240516 0.773376 -1.47381e-06 0.633948 
0.0112631 0.0339099 -0.0255022 -0.8833 9.68231e-05 -0.468809 
-0.00919295 0.128558 -0.0346649 -0.957028 1.86295e-06 -0.289996 
0.00618612 0.121358 -0.0414889 0.47178 -9.51911e-07 -0.881716 
-0.00694701 0.0637562 -0.0384594 -0.773383 1.11165e-06 -0.633939 
-0.00908979 0.104557 -0.0265565 -0.957036 1.4747e-06 0.289968 
0.000477977 0.152558 -0.0192838 -0.0981185 5.00951e-07 0.995175 
-0.00563792 0.0436148 -0.0387814 0.637049 5.02643e-05 0.770823 
0.0131178 0.0457557 -0.0326579 0.995195 -1.95157e-06 -0.0979159 
-0.0083695 0.0703031 -0.0349183 0.924641 0.000138938 0.38084 
-0.00624222 0.0326968 -0.038184 0.775195 9.35098e-05 0.631722 
0.00588079 0.124893 -0.0205658 -0.292152 -3.63638e-05 -0.956372 
0.0117238 0.0685563 -0.0250328 0.882135 -1.56902e-06 0.470996 
-0.00646436 0.115188 -0.0235098 0.77519 7.31587e-05 -0.631728 
0.0126261 0.146729 -0.030531 -0.995252 0.000131279 -0.097336 
0.00883894 0.0314837 -0.0224563 -0.637024 2.56438e-05 -0.770844 
-0.00722891 0.0421556 -0.0381155 -0.773375 1.44064e-06 -0.633949 
0.0102933 0.0448279 -0.0240011 -0.775172 6.29139e-05 -0.63175 
0.0124093 0.141876 -0.0284927 -0.95749 0.000120011 -0.288466 
0.00291864 0.097357 -0.0422781 0.0981497 6.79162e-07 -0.995172 
0.00978835 0.0171046 -0.0374025 -0.75267 0.243743 0.611618 
0.00729343 0.0424017 -0.0401104 -0.473953 -2.65907e-05 0.88055 
-0.00902785 0.126158 -0.0263522 -0.957033 1.8838e-06 0.289981 
0.0106816 0.058956 -0.0380468 0.773377 -1.767e-06 -0.633946 
-0.00394951 0.0421556 -0.0408683 -0.471779 9.33901e-07 -0.881717 
-0.00102482 0.106957 -0.0195262 -0.290579 5.69912e-07 0.956851 
-0.00409767 0.0715162 -0.0214482 0.472905 8.84984e-06 -0.881113 
0.0131441 0.152558 -0.0291697 0.995195 -2.02823e-06 0.0979136 
0.0132502 0.0553559 -0.0313122 0.995196 -1.26616e-06 -0.097908 
0.00166277 0.0409556 -0.019167 -0.098107 1.95591e-07 0.995176 
0.0133026 0.118958 -0.030781 1 -2.48346e-06 0 
0.0130745 0.142958 -0.0330644 0.957047 -1.40448e-06 -0.289931 
0.00284931 0.101844 -0.0198457 -0.0986401 -5.3019e-05 -0.995123 
0.00814511 0.0229551 -0.0211214 0.556021 -1.03559e-06 0.831168 
0.0107493 0.0757565 -0.0379643 0.773379 -1.01289e-06 -0.633944 
0.0107807 0.143089 -0.0245894 -0.775165 6.2876e-05 -0.631759 
0.00738478 0.0787948 -0.0213692 -0.473959 -9.58039e-06 -0.880547 
-0.000779696 0.0472541 -0.020054 0.29217 -3.69462e-05 -0.956367 
0.00214043 0.102157 -0.0192071 0.0981172 -2.52523e-07 0.995175 
0.00427907 0.141876 -0.0413517 -0.291717 -4.21801e-05 0.956505 
0.0126035 0.124893 -0.0311 -0.995227 0.000130866 0.0975861 
0.009994 0.124958 -0.0226762 0.773378 -1.50608e-06 0.633945 
0.000318644 0.0745564 -0.0422624 -0.09816 5.00749e-07 -0.995171 
0.00797507 0.0521065 -0.0217421 -0.635921 5.50928e-06 -0.771754 
-0.00795024 0.154959 -0.0372353 -0.831756 1.54933e-06 -0.555142 
0.000519219 0.0872865 -0.0198516 0.0984999 -4.95749e-05 -0.995137 
0.0104635 0.0569589 -0.0372204 -0.774724 5.31937e-05 0.632299 
0.00871468 0.0872865 -0.0223518 -0.637022 2.55073e-05 -0.770845 
0.000336417 0.118958 -0.0422642 -0.0981808 1.92293e-07 -0.995169 
0.0114224 0.150158 -0.0370941 0.882135 -1.60161e-06 -0.470997 
-0.00380298 0.0666637 -0.0401411 0.47394 9.4181e-06 0.880557 
0.00115005 0.140558 -0.0192176 -0.0981185 -1.16722e-07 0.995175 
-0.00786135 0.0448279 -0.0358685 0.88327 0.000130712 0.468866 
-0.00110477 0.124893 -0.0412746 0.291363 -3.68474e-05 0.956613 
0.0121153 0.12004 -0.0275267 -0.957267 0.000109226 -0.289205 
0.00712635 0.0325553 -0.0409857 0.47182 -6.11419e-07 -0.881695 
-0.00840604 0.0860734 -0.0348054 0.957257 0.000146247 0.28924 
-0.00669697 0.0266313 -0.0238055 0.775198 7.26849e-05 -0.631718 
-0.00868755 0.113975 -0.0338877 0.957266 0.000146115 0.28921 
0.00295407 0.126158 -0.0192873 0.0981183 1.10853e-07 0.995175 
0.00267096 0.0661562 -0.0423025 0.0981601 -1.93296e-07 -0.995171 
0.0124244 0.0925569 -0.0263522 0.957034 -1.95217e-06 0.289974 
0.00557775 0.0613561 -0.0416845 0.29063 -5.86784e-07 -0.956835 
0.00928549 0.0757565 -0.0395037 0.634827 -1.39217e-06 -0.772654 
0.0116081 0.152794 -0.026128 -0.882712 7.91905e-05 -0.469915 
0.00992037 0.0266313 -0.0235453 -0.77517 6.29052e-05 -0.631753 
-0.00416875 0.140558 -0.0208111 -0.471829 1.15204e-06 0.88169 
0.00907255 0.0533196 -0.0387808 -0.636479 1.58462e-05 0.771294 
-0.00266397 0.0266313 -0.0206768 0.473935 -7.43565e-06 -0.88056 
0.0102306 0.0541559 -0.0385969 0.773375 -1.43955e-06 -0.633949 
0.00323149 0.156433 -0.0198865 -0.0983973 -5.66688e-05 -0.995147 
-0.00902277 0.0865568 -0.0263352 -0.922386 1.64997e-06 0.386269 
-0.00735603 0.0387624 -0.0368181 0.832928 0.000104472 0.553382 
-0.000639542 0.12368 -0.0200142 0.292166 -3.67991e-05 -0.956367 
0.0130796 0.136958 -0.0285145 0.980828 -1.6239e-06 0.194878 
-0.00968837 0.0805566 -0.0285676 -0.995194 2.61663e-06 0.0979184 
0.0128164 0.0829567 -0.0339158 0.957044 -1.18617e-06 -0.289942 
0.011266 0.0630244 -0.0359271 -0.883289 7.95142e-05 0.468829 
0.00141593 0.147942 -0.0197658 0.0987036 -5.24246e-05 -0.995117 
-0.000888678 0.150158 -0.0194848 -0.290589 7.12167e-07 0.956848 
-0.00736609 0.107909 -0.0246143 0.832848 0.000103892 -0.553501 
0.00964268 0.0733564 -0.0392103 0.634826 -1.28061e-06 -0.772655 
0.0125515 0.0521065 -0.0298947 -0.995252 0.00013055 -0.097332 
0.00979371 0.0289553 -0.0224759 0.634824 -1.20488e-06 0.772657 
0.00101889 0.046041 -0.0197998 0.0987036 -5.28329e-05 -0.995117 
-0.000582692 0.0781565 -0.04217 -0.290598 1.45784e-06 -0.956845 
0.0017227 0.0149058 -0.0406041 0.00412589 0.359322 0.933205 
-0.00786154 0.0484672 -0.0255622 0.88328 0.000114424 -0.468846 
0.0021954 0.0080363 -0.0319672 -0.0222054 0.997213 0.0712213 
-0.00919873 0.0884996 -0.0307654 0.995253 0.000170561 0.0973257 
0.0125158 0.0545327 -0.0295263 -0.995252 0.000130957 -0.0973293 
-0.00885514 0.120158 -0.0260214 -0.882135 2.2955e-06 0.470996 
-0.00814003 0.0666637 -0.026082 0.882712 0.000130784 -0.469915 
-0.00963163 0.0505558 -0.0332177 -0.95704 2.48551e-06 -0.289957 
-0.00238407 0.110335 -0.0205456 0.291359 -2.53131e-05 -0.956614 
0.0127957 0.0421556 -0.0275781 0.957035 -2.04196e-06 0.289972 
0.0027472 0.0080363 -0.0315085 -0.063297 0.9974 0.0344532 
0.0101629 0.0325553 -0.0386795 0.773375 -1.6801e-06 -0.633949 
-0.000718706 0.0997571 -0.0194332 -0.290591 6.07334e-07 0.956847 
0.00709226 0.112762 -0.0212121 -0.473962 -9.62031e-06 -0.880546 
0.00712642 0.0685563 -0.0409857 0.471833 -1.22566e-06 -0.881688 
-0.00369864 0.0901568 -0.0410025 -0.471788 1.36244e-06 -0.881712 
-0.00968471 0.147758 -0.0330297 -0.995199 2.37955e-06 -0.0978749 
0.012534 0.0314837 -0.0316862 -0.995251 0.000127368 0.0973432 
0.0125133 0.0618113 -0.0319371 -0.995252 0.000127372 0.097327 
-0.00560093 0.0642375 -0.0226179 0.635947 5.02554e-05 -0.771733 
0.00213147 0.12004 -0.0416545 -0.0987009 -5.63673e-05 0.995117 
0.0118161 0.144158 -0.0363566 0.882134 -1.71768e-06 -0.470998 
0.00610501 0.0841567 -0.0200375 0.290588 -5.70762e-07 0.956848 
0.0118093 0.0411886 -0.0265436 -0.957262 0.000109233 -0.289224 
-0.00968491 0.0685563 -0.0330297 -0.995198 2.71719e-06 -0.0978782 
-0.000362332 0.0545327 -0.0199371 0.0983964 -4.87402e-05 -0.995147 
0.00968089 0.0715162 -0.0232478 -0.77426 4.28872e-05 -0.632868 
0.0102758 0.121358 -0.0230201 0.773381 -1.79067e-06 0.633942 
0.000442523 0.111757 -0.0192873 -0.0981185 -1.17828e-07 0.995175 
-0.0070089 0.0569589 -0.0372468 0.775192 9.3728e-05 0.631726 
0.00278251 0.109122 -0.0198395 -0.0983976 -5.67676e-05 -0.995147 
0.0123522 0.0865568 -0.0353523 0.882134 -1.82557e-06 -0.470998 
-0.00607081 0.10427 -0.0230282 0.775187 7.29902e-05 -0.631732 
-0.00395813 0.141876 -0.0400583 0.473388 -5.24625e-08 0.880854 
0.00288325 0.0925569 -0.0422816 0.0981394 -8.0447e-07 -0.995173 
-0.0047487 0.120158 -0.0211214 -0.556016 1.05559e-06 0.831171 
-0.0030718 0.0421556 -0.041338 -0.471819 5.27674e-07 -0.881695 
-0.00826518 0.109122 -0.0263053 0.882715 0.000131179 -0.469909 
0.012961 0.121358 -0.033439 0.957039 -1.88197e-06 -0.289959 
0.00845635 0.111549 -0.0392905 -0.636488 1.59265e-05 0.771286 
0.0108708 0.122467 -0.0247482 -0.882713 7.91198e-05 -0.469912 
0.0131999 0.147758 -0.0318257 0.995193 -2.28419e-06 -0.0979321 
0.0083101 0.0913569 -0.0403051 0.634822 -1.23223e-06 -0.772658 
0.0125637 0.109122 -0.0314848 -0.995227 0.000130779 0.0975884 
-0.00581578 0.122467 -0.0386396 0.637042 5.07728e-05 0.770829 
-0.00201118 0.133358 -0.0417362 -0.290584 1.13659e-06 -0.95685 
0.0100053 0.130958 -0.02269 0.77338 -1.46606e-06 0.633943 
0.00565521 0.093352 -0.0409344 -0.291364 -3.66803e-05 0.956612 
0.0100834 0.0739424 -0.037688 -0.775166 4.34054e-05 0.631757 
-0.00356674 0.0763686 -0.0211631 0.473938 -7.20769e-06 -0.880558 
-0.00339188 0.081221 -0.0403625 0.47392 8.95316e-06 0.880568 
-0.00561425 0.0997571 -0.0397295 -0.634816 1.47143e-06 -0.772663 
0.0107871 0.103057 -0.0246012 -0.775152 6.28263e-05 -0.631775 
0.0118637 0.0496803 -0.0267208 -0.957264 0.000109258 -0.289214 
0.012623 0.022992 -0.0307654 -0.995241 0.000128801 0.0974462 
0.00576486 0.0793566 -0.0416277 0.290588 -1.56293e-07 -0.956848 
-0.00181087 0.146729 -0.0410587 0.291349 -3.74435e-05 0.956617 
0.0103546 0.0289553 -0.0384456 0.773377 -1.33339e-06 -0.633946 
-0.00394935 0.123758 -0.0408683 -0.471783 1.47163e-06 -0.881715 
-0.00693572 0.0697563 -0.0384732 -0.773375 1.65341e-06 -0.633949 
0.0104776 0.0897127 -0.0372065 -0.774263 6.34308e-05 0.632864 
0.0117659 0.146558 -0.0364507 0.882135 -1.39236e-06 -0.470996 
0.0131945 0.0649562 -0.0318788 0.995194 -1.41471e-06 -0.0979198 
0.0102757 0.0541559 -0.0230201 0.773386 -1.44097e-06 0.633936 
-0.000939931 0.0313553 -0.0195003 -0.290582 6.14347e-07 0.95685 
0.00509409 0.0411886 -0.0203223 -0.292167 -3.68975e-05 -0.956367 
-0.00604506 0.151581 -0.0384394 0.774245 7.36203e-05 0.632886 
-0.00903637 0.137024 -0.0289248 0.995252 0.000166251 -0.0973269 
0.0118829 0.0421556 -0.0253309 0.882127 -1.91702e-06 0.471012 
-0.00841538 0.0836472 -0.0347732 0.957259 0.00014611 0.289231 
-0.00733021 0.123758 -0.0379918 -0.773383 1.93684e-06 -0.633939 
0.000669931 0.0254182 -0.041597 0.09863 -4.8039e-05 0.995124 
0.00279905 0.115188 -0.0198414 -0.0984048 -5.60561e-05 -0.995146 
0.0121175 0.0982045 -0.0275423 -0.957266 0.000109195 -0.28921 
-0.000547858 0.150158 -0.019385 -0.0981046 5.00466e-07 0.995176 
0.0124184 0.0994176 -0.0285406 -0.957488 0.000120468 -0.288475 
-0.000494988 0.0529559 -0.0193797 -0.0981208 2.60661e-07 0.995174 
0.00535679 0.127358 -0.0417517 0.290579 -5.47998e-07 -0.956851 
0.00972513 0.0853567 -0.0391425 0.634823 -1.08893e-06 -0.772658 
0.00931291 0.0493558 -0.0220808 0.634825 -1.4363e-06 0.772656 
-0.0071363 0.0120203 -0.0298387 -0.771133 -0.632139 0.0758546 
0.0124411 0.0860734 -0.032707 -0.995251 0.000127408 0.0973461 
0.0117504 0.0266313 -0.0350082 -0.883011 8.81296e-05 0.469352 
-0.00394939 0.104557 -0.0206936 -0.471829 6.02113e-07 0.88169 
-0.00515658 0.12368 -0.0391838 0.635949 3.04693e-05 0.771731 
0.0114945 0.0642375 -0.0354967 -0.883286 7.97384e-05 0.468835 
0.0090244 0.0445557 -0.0397182 0.634871 -1.18251e-06 -0.772618 
-0.00813466 0.132171 -0.0260537 0.882713 0.000130504 -0.469912 
-0.00752104 0.144302 -0.0248974 0.883281 0.000114068 -0.468845 
-0.00965215 0.0937569 -0.0331496 -0.957039 2.56107e-06 -0.28996 
0.0130812 0.058956 -0.0285322 0.995195 -2.19299e-06 0.0979116 
-0.00982432 0.0373555 -0.0299488 -0.9952 1.77638e-06 0.0978649 
0.0048221 0.0836472 -0.0411888 -0.292125 -4.80973e-05 0.95638 
0.00769304 0.0605982 -0.0215349 -0.47396 -9.61933e-06 -0.880546 
-0.00200304 0.144302 -0.0410003 0.29137 -3.65525e-05 0.956611 
-0.000165275 0.103057 -0.0415104 0.0987018 -4.82647e-05 0.995117 
-0.00746547 0.142958 -0.0237353 -0.773375 1.74211e-06 0.633949 
0.0100251 0.12004 -0.0236655 -0.774264 4.27175e-05 -0.632863 
0.00467637 0.0601561 -0.0196036 0.290585 -7.05216e-07 0.956849 
-0.00336782 0.146729 -0.0403751 0.472845 -8.56511e-06 0.881146 
-0.00278962 0.0709563 -0.020073 -0.471829 1.18869e-06 0.88169 
0.00973877 0.0337554 -0.0391312 0.634828 -6.07248e-07 -0.772653 
0.0131265 0.058956 -0.0289926 0.995194 -1.8319e-06 0.0979212 
0.00914801 0.0217789 -0.0387182 -0.637051 5.79349e-06 0.770822 
0.00579886 0.0721564 -0.0199445 0.290586 -5.35993e-07 0.956849 
-0.00366734 0.0685563 -0.0410193 -0.471785 3.13832e-07 -0.881714 
-0.00160263 0.147942 -0.0411221 0.291349 -3.73124e-05 0.956617 
0.00893835 0.146729 -0.0388945 -0.635925 2.59861e-05 0.771751 
-0.00407493 0.0277552 -0.0207607 -0.471828 6.30771e-07 0.88169 
0.00845072 0.0242051 -0.0392945 -0.637049 5.65656e-06 0.770823 
0.0118579 0.0805566 -0.0252839 0.882136 -1.35059e-06 0.470995 
0.00356407 0.081221 -0.0199155 -0.0986972 -5.24093e-05 -0.995117 
0.0101566 0.0630244 -0.0375974 -0.775169 4.31088e-05 0.631754 
0.00990378 0.110557 -0.0389958 0.707515 -1.49711e-06 -0.706698 
-0.0097789 0.102157 -0.0294884 -0.995194 2.51512e-06 0.0979196 
0.00839258 0.117758 -0.0402374 0.634819 -1.5668e-06 -0.772661 
0.0131718 0.0325553 -0.029453 0.995194 -1.5446e-06 0.097924 
0.000969026 0.0448279 -0.0198047 0.0986908 -5.28067e-05 -0.995118 
-0.00410608 0.123758 -0.0407845 -0.471843 9.15439e-07 -0.881683 
0.0132973 0.0685563 -0.0308341 0.995195 -1.85358e-06 -0.0979129 
0.00437023 0.0481557 -0.0420512 0.290579 -5.7097e-07 -0.956851 
0.00991505 0.111757 -0.038982 0.773397 -1.17825e-06 -0.633922 
0.00654161 0.0339099 -0.0405153 -0.473953 -2.66057e-05 0.88055 
0.0127545 0.0421556 -0.0341201 0.957038 -1.45406e-06 -0.289963 
0.00589476 0.0727293 -0.0408623 -0.384511 -3.1651e-05 0.92312 
-0.00970067 0.0361554 -0.0328703 -0.995198 2.75539e-06 -0.0978776 
-0.00987118 0.120158 -0.0304269 -0.995199 1.72346e-06 0.0978739 
0.0034845 0.0397555 -0.0422223 0.09816 1.19485e-07 -0.995171 
-0.00333581 0.129745 -0.0210388 0.472912 8.96782e-06 -0.881109 
0.0127544 0.0373555 -0.0341201 0.957041 -1.89971e-06 -0.289954 
-0.00800074 0.0313553 -0.0371412 -0.88213 2.13051e-06 -0.471006 
0.0100985 0.109122 -0.0237561 -0.774264 4.3053e-05 -0.632862 
0.00728534 0.138237 -0.0213164 -0.472933 -2.6087e-05 -0.881098 
0.0038469 0.0969913 -0.0199444 -0.196102 -5.02896e-05 -0.980583 
0.0127237 0.140558 -0.0273397 0.95704 -1.48543e-06 0.289956 
0.0131371 0.147758 -0.0290988 0.995195 -2.01602e-06 0.0979162 
-0.00507841 0.124958 -0.0401697 -0.63482 8.40043e-07 -0.77266 
0.00223329 0.022992 -0.0197804 -0.0987029 -5.20116e-05 -0.995117 
-0.00986082 0.0601561 -0.0312414 -0.995194 1.86057e-06 -0.0979203 
-0.00717562 0.0399755 -0.0243913 0.774726 8.3214e-05 -0.632297 
0.012118 0.0642375 -0.027558 -0.957492 0.000120011 -0.288458 
0.00460849 0.132158 -0.019583 0.290588 -4.62604e-07 0.956848 
-0.00935305 0.0433556 -0.0341371 -0.957029 1.96641e-06 -0.289992 
0.0117918 0.0424017 -0.0264966 -0.883318 9.65885e-05 -0.468774 
-0.00919312 0.0325553 -0.026897 -0.957022 2.36139e-06 0.290014 
0.0132085 0.132158 -0.0298248 0.995195 -1.78306e-06 0.0979159 
0.00682873 0.120158 -0.0411451 0.471799 -8.40298e-07 -0.881706 
0.0116171 0.0302706 -0.0261699 -0.883297 9.682e-05 -0.468813 
0.00786322 0.141758 -0.0209704 0.471829 -7.51097e-07 0.88169 
0.0113009 0.0205658 -0.0255762 -0.883297 9.69187e-05 -0.468813 
0.00228231 0.0605982 -0.0416429 -0.0987009 -5.68722e-05 0.995117 
0.0113969 0.0351231 -0.0356757 -0.883293 7.93191e-05 0.468822 
0.0108965 0.06909 -0.0366243 -0.883291 7.96433e-05 0.468825 
0.0101856 0.0733564 -0.038652 0.773375 -1.43945e-06 -0.633949 
0.00649947 0.0613561 -0.0413212 0.471804 -1.05219e-06 -0.881703 
-0.000768398 0.143089 -0.0200543 0.292166 -3.66721e-05 -0.956368 
-0.00959523 0.157359 -0.0282251 -0.957035 2.10601e-06 0.289973 
0.0124547 0.115188 -0.0326063 -0.995252 0.000127119 0.0973363 
0.0017866 0.0517558 -0.0423898 0.0981809 1.04902e-06 -0.995169 
-0.00156909 0.0829567 -0.0196914 -0.290579 5.72046e-07 0.956851 
0.0117322 0.0649562 -0.0365135 0.882139 -2.15196e-06 -0.47099 
0.00610421 0.143089 -0.0206826 -0.472933 -2.61107e-05 -0.881098 
-0.00834139 0.0424017 -0.026467 0.882713 0.000130466 -0.469912 
0.0104899 0.0433556 -0.0232814 0.773378 -1.39216e-06 0.633945 
0.00967023 0.114157 -0.0223743 0.634824 -1.28113e-06 0.772657 
0.0020873 0.0649562 -0.0423601 0.0981531 -1.88823e-07 -0.995171 
0.00918762 0.0351231 -0.0386856 -0.637045 6.23641e-06 0.770827 
0.012379 0.0945651 -0.0284117 -0.957489 0.000120086 -0.288468 
0.0089514 0.147942 -0.0388838 -0.635921 2.5963e-05 0.771754 
-0.0045122 0.150368 -0.0397158 0.635948 3.07971e-05 0.771732 
-0.00870587 0.13945 -0.0275918 0.957265 0.000157799 -0.289211 
-0.00884599 0.0472541 -0.0281056 0.957502 0.000146632 -0.288428 
0.0112168 0.110335 -0.0254002 -0.882709 7.9053e-05 -0.46992 
-0.00238555 0.020555 -0.0416226 -0.290583 1.06768e-06 -0.95685 
-0.00758335 0.13945 -0.025016 0.883284 0.000113956 -0.468839 
0.000318709 0.108157 -0.0422624 -0.0981531 1.92282e-07 -0.995171 
-0.00729401 0.122467 -0.0369066 0.775199 9.38905e-05 0.631717 
0.00953275 0.0637562 -0.0393006 0.634826 -1.28082e-06 -0.772655 
-0.00970559 0.152558 -0.0328172 -0.995198 2.44106e-06 -0.0978803 
0.00888402 0.117614 -0.0389383 -0.635923 2.60163e-05 0.771752 
-0.00730782 0.0445557 -0.0380193 -0.773375 1.43948e-06 -0.633949 
0.00955763 0.122467 -0.0383364 -0.775169 4.35174e-05 0.631754 
0.00769064 0.056556 -0.0406838 0.471807 -6.30053e-07 -0.881702 
0.0118195 0.0860734 -0.0348697 -0.957492 0.000109297 0.288461 
-0.00846981 0.0889568 -0.0252996 -0.882135 2.15059e-06 0.470997 
0.0124562 0.0496803 -0.0289236 -0.995227 0.00012735 -0.0975898 
-0.00795867 0.123758 -0.0243424 -0.882127 1.96881e-06 0.471012 
-0.00902787 0.118958 -0.0352098 -0.957034 1.61311e-06 -0.289975 
-0.00238369 0.105483 -0.0205453 0.291356 -2.54744e-05 -0.956615 
-0.00163706 0.111757 -0.0197121 -0.29058 5.63398e-07 0.956851 
-0.00608141 0.0709563 -0.0393457 -0.634827 1.48458e-06 -0.772654 
0.00683795 0.0763686 -0.0403545 -0.473922 -2.70914e-05 0.880567 
0.00171749 0.0351231 -0.0417003 0 -5.52758e-05 1 
-0.00546987 0.0424017 -0.0389203 0.637049 5.04376e-05 0.770824 
-0.00986782 0.0553559 -0.0303914 -0.995199 1.82046e-06 0.0978721 
0.0126228 0.109122 -0.0305478 -0.995252 0.000130667 -0.0973302 
0.0101413 0.12368 -0.0376213 -0.774268 6.35769e-05 0.632859 
0.00341395 0.140558 -0.0193326 0.0981161 -1.49765e-07 0.995175 
0.011391 0.122467 -0.0357031 -0.882723 9.62954e-05 0.469893 
0.0106254 0.136958 -0.0381155 0.773375 -1.68087e-06 -0.633949 
0.0132921 0.0889568 -0.0308872 0.995194 -1.77954e-06 -0.0979211 
-0.00536502 0.0326968 -0.0224244 0.637026 3.0984e-05 -0.770842 
-0.00904185 0.0715162 -0.0323392 0.995222 0.000166387 0.0976384 
-0.00974742 0.142958 -0.0323923 -0.995194 2.08538e-06 -0.097918 
0.0113356 0.109357 -0.0372491 0.773397 -1.17825e-06 -0.633922 
-0.00617757 0.0254182 -0.0382622 0.775191 9.40854e-05 0.631728 
0.00466466 0.151581 -0.0201962 -0.29139 -4.87043e-05 -0.956604 
0.0119669 0.117758 -0.0360741 0.882132 -1.3666e-06 -0.471003 
0.00806689 0.0997571 -0.0404825 0.471819 -4.67666e-07 -0.881696 
-0.00905725 0.124893 -0.0291591 0.995252 0.000166116 -0.0973293 
0.0102532 0.056556 -0.0385694 0.773375 -1.44007e-06 -0.633949 
0.011506 0.0661562 -0.0369372 0.882133 -1.54592e-06 -0.471 
0.000813806 0.0409556 -0.0192507 -0.098122 3.69163e-08 0.995174 
0.0132067 0.0661562 -0.0298071 0.995195 -2.08524e-06 0.0979168 
0.00448944 0.133358 -0.0420151 0.29058 -5.46958e-07 -0.956851 
0.0107923 0.0521065 -0.0368177 -0.832859 7.14963e-05 0.553485 
-0.00795887 0.0229551 -0.0372196 -0.882141 1.58516e-06 -0.470986 
0.00661833 0.112762 -0.0404716 -0.473961 -2.6723e-05 0.880546 
-0.00829866 0.0715162 -0.0263786 0.882711 0.000131292 -0.469916 
0.0132172 0.0829567 -0.0299134 0.995194 -1.74574e-06 0.0979188 
0.0132084 0.0409556 -0.0317371 0.995194 -2.16293e-06 -0.0979267 
-0.00542189 0.114157 -0.0398875 -0.634828 1.30538e-06 -0.772654 
0.0132902 0.0301553 -0.0309049 0.995195 -1.72964e-06 -0.0979093 
0.0107552 0.101844 -0.0245621 -0.775166 6.29752e-05 -0.631758 
0.0121173 0.101844 -0.0338872 -0.95726 0.000120033 0.289228 
-0.000105697 0.146558 -0.0422206 -0.0981531 1.91831e-07 -0.995171 
-0.0083229 0.0254182 -0.026437 0.882994 0.00012225 -0.469384 
0.0119585 0.110335 -0.0270116 -0.957264 0.000108781 -0.289214 
-0.00985213 0.0517558 -0.0313299 -0.995198 2.39075e-06 -0.0978816 
0.00595533 0.111549 -0.0206017 -0.472929 -2.61552e-05 -0.8811 
0.0130744 0.109357 -0.0330644 0.957053 -1.66246e-06 -0.289915 
-0.00846983 0.0793566 -0.0252996 -0.882133 1.83541e-06 0.471001 
-0.00990609 0.0745564 -0.030781 -1 1.8626e-06 -2.10364e-05 
0.0133007 0.0421556 -0.0307633 0.995194 -2.13218e-06 0.097926 
0.0132992 0.146558 -0.0307456 0.995195 -1.70393e-06 0.0979133 
0.0062936 0.0763686 -0.0207823 -0.472924 -2.57199e-05 -0.881103 
-0.00977901 0.0541559 -0.0294884 -0.995199 2.01626e-06 0.0978747 
0.00469493 0.122467 -0.0412258 -0.29139 -3.75345e-05 0.956604 
0.0124879 0.0666637 -0.0292249 -0.995239 0.000129076 -0.0974617 
0.00939536 0.056556 -0.0394134 0.634817 -1.44887e-06 -0.772663 
0.0133007 0.0373555 -0.0307987 0.995194 -1.79128e-06 -0.0979225 
-0.00564167 0.128558 -0.0218551 -0.63483 1.19917e-06 0.772652 
0.00710658 0.128532 -0.0402094 -0.472892 -9.14705e-06 0.88112 
-0.00635616 0.0805566 -0.022442 -0.634816 1.55556e-06 0.772664 
0.00283083 0.13945 -0.0415842 -0.0983862 -5.20116e-05 0.995148 
-0.00974591 0.0625561 -0.029152 -0.995197 2.15881e-06 0.0978929 
0.00552673 0.0625561 -0.0198619 0.290582 -6.26386e-07 0.95685 
0.00281262 0.152558 -0.0192734 0.0981116 -3.9751e-07 0.995175 
-0.00870435 0.112957 -0.0257389 -0.882133 1.5458e-06 0.471 
0.0023149 0.00916245 -0.0257909 -0.0452599 0.887479 -0.45862 
0.00176897 0.0817566 -0.0423915 0.0981532 -3.29952e-07 -0.995171 
0.00929913 0.0241551 -0.0394924 0.634823 -1.46985e-06 -0.772658 
-0.00492583 0.150368 -0.022056 0.635945 5.00191e-05 -0.771735 
0.0132641 0.0505558 -0.0311705 0.995195 -2.01287e-06 -0.0979147 
0.00373 0.0472541 -0.0199301 -0.0987007 -5.24549e-05 -0.995117 
0.0114726 0.147758 -0.0245621 0.882134 -1.72951e-06 0.470998 
0.0120019 0.149155 -0.0342889 -0.95726 0.000120299 0.289228 
0.00378526 0.0841567 -0.0193693 0.0981139 -1.59383e-07 0.995175 
-0.0066363 0.129745 -0.0237183 0.774261 9.32668e-05 -0.632866 
0.0105143 0.129745 -0.0242638 -0.775166 6.31568e-05 -0.631758 
0.00162749 0.0913569 -0.0423915 -0.0981642 -5.26039e-08 -0.99517 
0.0062568 0.0111401 -0.0376113 0.392634 -0.704695 -0.590969 
-0.00919915 0.0909258 -0.0307654 0.995252 0.000170694 0.0973351 
0.0118661 0.0217551 -0.0252996 0.882138 -1.41384e-06 0.470991 
0.0132991 0.127358 -0.0307456 0.995194 -1.70393e-06 0.0979226 
0.0124046 0.143089 -0.0329537 -0.957258 0.000120258 0.289237 
-0.00167105 0.126158 -0.0418395 -0.29058 5.63811e-07 -0.956851 
0.000719241 0.0630244 -0.0198304 0.0986963 -5.24575e-05 -0.995118 
0.0111192 0.0836472 -0.0252215 -0.882713 7.92251e-05 -0.469912 
-0.00275814 0.140558 -0.0415057 -0.471779 8.96976e-07 -0.881717 
-0.00671017 0.103357 -0.0228138 -0.773376 1.39705e-06 0.633947 
0.00481238 0.0313553 -0.041917 0.290596 -5.46284e-07 -0.956846 
-0.00900405 0.12004 -0.0328072 0.995222 0.000166354 0.0976354 
-0.0088606 0.134598 -0.0281066 0.957263 0.000157594 -0.289218 
0.00701313 0.0339099 -0.0402615 -0.473953 -2.65458e-05 0.88055 
-0.00379259 0.138158 -0.0206098 -0.471829 6.78132e-07 0.88169 
-0.0090638 0.124893 -0.0292261 0.995251 0.000166179 -0.0973375 
0.0113468 0.0529559 -0.0372353 0.831771 -1.68721e-06 -0.555119 
0.0075291 0.0399755 -0.0399836 -0.473394 -1.77746e-05 0.880851 
-0.00867486 0.0375493 -0.0338887 0.95751 0.000157945 0.2884 
-0.00531204 0.0853567 -0.0399778 -0.634828 1.20694e-06 -0.772654 
-0.00564164 0.145358 -0.0218551 -0.634829 1.23174e-06 0.772653 
0.0105688 0.0421556 -0.0233777 0.773385 -1.29324e-06 0.633936 
-0.00867816 0.0860734 -0.0339043 0.957508 0.000157887 0.288405 
-0.00860374 0.151358 -0.0360114 -0.882132 1.90918e-06 -0.471003 
0.0028304 0.0909258 -0.0415868 -0.0986789 -5.63683e-05 0.995119 
0.0130641 0.0997571 -0.0284634 0.957037 -1.66553e-06 0.289967 
0.0113804 0.0913569 -0.0243895 0.882137 -1.76142e-06 0.470993 
-0.00401485 0.127319 -0.0214032 0.472914 8.97719e-06 -0.881109 
-0.00837452 0.101844 -0.0349176 0.924646 0.000139179 0.380827 
0.0128578 0.145358 -0.0277824 0.957036 -1.59251e-06 0.289969 
-0.00647988 0.0409556 -0.0225436 -0.634818 1.08038e-06 0.772662 
0.00171765 0.0266313 -0.0197295 4.47612e-05 -5.48654e-05 -1 
0.00584675 0.0715162 -0.0205534 -0.292145 -3.71551e-05 -0.956374 
0.00822769 0.103357 -0.0403729 0.634827 -2.15287e-06 -0.772654 
0.00927568 0.151581 -0.0228132 -0.637016 2.57862e-05 -0.770851 
0.00686938 0.113975 -0.0403368 -0.472876 -9.80127e-06 0.881129 
0.00376749 0.0397555 -0.0421944 0.098153 -6.00558e-07 -0.995171 
-0.00911278 0.0363362 -0.0298782 0.995252 0.000166218 -0.0973293 
0.0125997 0.0469557 -0.0269311 0.957036 -2.04555e-06 0.28997 
0.00571393 0.126158 -0.0416432 0.290617 7.70351e-09 -0.95684 
-0.00882208 0.134598 -0.0334529 0.95726 0.000145923 0.289227 
-0.0089783 0.111549 -0.0329219 0.957506 0.00015779 0.288413 
-0.00939951 0.0301553 -0.0339839 -0.957032 1.60267e-06 -0.289982 
0.00615472 0.0925569 -0.0415057 0.47178 -8.78613e-07 -0.881716 
0.0118134 0.0351231 -0.0348708 -0.957491 0.000109562 0.288463 
-0.00944064 0.0997571 -0.0338476 -0.957041 2.28787e-06 -0.289954 
-0.00511977 0.0493558 -0.0401358 -0.634806 1.31227e-06 -0.772671 
-0.00873345 0.0715162 -0.0277196 0.957503 0.000146288 -0.288425 
-0.00791662 0.0469557 -0.0372766 -0.773383 1.96771e-06 -0.633939 
0.00869917 0.0715162 -0.0390895 -0.637065 5.65622e-06 0.77081 
-0.00368198 0.0424017 -0.0212249 0.473942 -7.24418e-06 -0.880556 
0.00508455 0.0649562 -0.0197276 0.29058 -5.45872e-07 0.956851 
0.0132974 0.138158 -0.0307279 0.995195 -1.85345e-06 0.0979156 
0.0058807 0.122467 -0.0205657 -0.292164 -3.68827e-05 -0.956368 
0.00977998 0.0301553 -0.0224646 0.634831 -7.02645e-07 0.772651 
-0.00371984 0.117614 -0.0401864 0.47394 9.07341e-06 0.880557 
0.0113037 0.118827 -0.0358662 -0.882729 9.63471e-05 0.469882 
-0.00909539 0.0205658 -0.0297273 0.995252 0.00016613 -0.0973276 
0.0117548 0.127319 -0.0264094 -0.883297 9.68201e-05 -0.468813 
-0.00973016 0.0781565 -0.0325693 -0.995199 2.67333e-06 -0.0978771 
0.00983511 0.123758 -0.0225098 0.634819 -1.06437e-06 0.772661 
-0.00657313 0.127319 -0.0377905 0.774269 7.32417e-05 0.632856 
0.011682 0.105757 -0.0366076 0.882134 -1.80053e-06 -0.470998 
0.000371697 0.0709563 -0.0422677 -0.0981807 -1.04429e-06 -0.995169 
0.00588406 0.154959 -0.0199703 0.290579 -5.86411e-07 0.956851 
0.00779304 0.0399755 -0.0398382 -0.637061 6.36565e-06 0.770814 
-0.00785031 0.0254182 -0.0255466 0.883289 0.000114038 -0.468829 
0.00671899 0.106957 -0.0412038 0.471786 -5.51156e-07 -0.881713 
0.0087001 0.0104177 -0.0287447 0.60926 -0.771184 0.1846 
-0.00280463 0.129745 -0.0207534 0.473936 -7.46763e-06 -0.880559 
-0.00907738 0.146729 -0.0293265 0.995223 0.000170385 -0.0976327 
-0.00637224 0.0521065 -0.0380273 0.775205 9.32451e-05 0.63171 
0.00291857 0.0637562 -0.0192838 0.0981289 1.15681e-07 0.995174 
-0.00466696 0.0254182 -0.0395827 0.637049 5.06375e-05 0.770823 
-0.00849481 0.154959 -0.0362154 -0.882131 2.08176e-06 -0.471003 
0.00263218 0.0254182 -0.0416102 -0.098712 -5.66172e-05 0.995116 
-0.00825383 0.0363362 -0.0351268 0.883269 0.00013054 0.468867 
0.00886527 0.0436148 -0.0389521 -0.637052 5.7227e-06 0.770821 
-0.00978231 0.118958 -0.0320381 -0.995194 1.83157e-06 -0.0979255 
-0.0090022 0.118827 -0.0286065 0.995252 0.000166244 -0.097327 
0.0107494 0.142958 -0.0379643 0.773379 -1.14437e-06 -0.633944 
-0.00841117 0.0853567 -0.0251897 -0.882127 2.22787e-06 0.471012 
0.0129713 0.133358 -0.033405 0.957039 -2.10962e-06 -0.289958 
0.00153404 0.0424017 -0.0416818 0.098424 -5.2741e-05 0.995145 
0.0122913 0.129745 -0.0281062 -0.957488 0.000120195 -0.288473 
0.00699929 0.0569589 -0.0402682 -0.473964 -2.63389e-05 0.880544 
-0.00828557 0.0481557 -0.0249544 -0.882133 1.6987e-06 0.471 
-0.00337205 0.0363362 -0.021058 0.473939 -7.18553e-06 -0.880558 
0.0116987 0.0985571 -0.0249857 0.882133 -1.66729e-06 0.470999 
0.0103228 0.0242051 -0.0373908 -0.775168 4.35466e-05 0.631755 
0.0125273 0.0424017 -0.0296603 -0.995252 0.00013078 -0.0973353 
0.00188151 0.147942 -0.0416777 -0.0987229 -5.61618e-05 0.995115 
0.0019334 0.0472541 -0.0416782 -0.0986936 -5.6361e-05 0.995118 
0.00859344 0.0302706 -0.0222535 -0.637016 2.57371e-05 -0.770851 
-0.00707504 0.0787948 -0.0242625 0.774264 9.29695e-05 -0.632863 
0.0108923 0.0302706 -0.0366255 -0.883292 7.97217e-05 0.468824 
0.00383826 0.0541559 -0.0193745 0.0981186 -3.31336e-08 0.995175 
0.00902444 0.0649562 -0.0218438 0.63482 -1.3139e-06 0.77266 
-0.00894688 0.127319 -0.0283961 0.957264 0.000157614 -0.289217 
-0.00518726 0.0545327 -0.0391546 0.637078 5.07408e-05 0.770799 
-0.00755262 0.0351231 -0.0364474 0.883272 0.000130217 0.468861 
-0.00893908 0.0409556 -0.0353837 -0.882135 1.39236e-06 -0.470996 
-0.00786888 0.0921389 -0.0358675 0.883269 0.000130565 0.468866 
0.00772192 0.0533196 -0.0398799 -0.472892 -9.40336e-06 0.88112 
0.00654598 0.111549 -0.0209188 -0.472929 -2.60439e-05 -0.881101 
0.010467 0.0836472 -0.0242104 -0.775165 6.29521e-05 -0.631759 
-0.00717245 0.0829567 -0.0233777 -0.773379 1.83927e-06 0.633944 
-0.00935813 0.0829567 -0.0341201 -0.957029 1.82542e-06 -0.289992 
-0.00968665 0.0697563 -0.0285499 -0.995193 2.25203e-06 0.0979281 
-0.00270848 0.122558 -0.0200375 -0.290587 5.61275e-07 0.956848 
-0.000831164 0.118827 -0.0200725 0.29217 -3.69456e-05 -0.956367 
0.0126616 0.0517558 -0.0271354 0.957035 -1.73657e-06 0.289972 
0.00580115 0.138237 -0.0408882 -0.291368 -3.75877e-05 0.956611 
-0.00869029 0.100631 -0.0338719 0.957261 0.00014638 0.289226 
0.0132434 0.122558 -0.031383 0.995194 -1.89532e-06 -0.0979252 
0.0122275 0.12368 -0.0278968 -0.957377 0.000114847 -0.288841 
-0.00908996 0.0557458 -0.0318203 0.995252 0.000170533 0.0973333 
0.0123615 0.0339099 -0.0283789 -0.957489 0.000119962 -0.288469 
-0.00728513 0.118958 -0.0235152 -0.773385 1.29324e-06 0.633936 
-0.0047487 0.120158 -0.0404406 -0.555994 9.4048e-07 -0.831186 
0.00947492 0.0242051 -0.022999 -0.774986 5.86817e-05 -0.631979 
0.0132102 0.0829567 -0.0298425 0.995194 -1.5446e-06 0.097924 
-0.00901697 0.128532 -0.03269 0.995222 0.00016622 0.0976346 
-0.00722884 0.0769565 -0.0234464 -0.773379 1.66955e-06 0.633944 
0.00284779 0.0469557 -0.0422851 0.0981602 -5.03211e-07 -0.995171 
